ply
        format ascii 1.0
        element vertex 79688
        property float x
        property float y
        property float z
        property uchar red
        property uchar green
        property uchar blue
        end_header
3.063257 0.812921 -5.969127 61 23 32
3.051436 0.806947 -5.925266 61 24 34
3.049900 0.803726 -5.901612 64 27 38
3.060546 0.803726 -5.901612 67 33 43
3.071191 0.803726 -5.901612 72 38 47
3.098328 0.808027 -5.933193 76 44 51
3.109030 0.808027 -5.933193 78 47 52
3.113485 0.806409 -5.921310 76 46 49
3.115845 0.804261 -5.905541 74 44 46
3.116125 0.801593 -5.885948 72 40 45
3.097962 0.794214 -5.831770 69 37 46
3.092217 0.790059 -5.801258 69 35 47
3.092568 0.787484 -5.782349 69 34 49
3.102999 0.787484 -5.782349 72 35 51
-3.979003 1.564304 -11.640581 109 57 35
-3.958005 1.564304 -11.640581 115 62 38
-3.901170 1.550065 -11.534620 117 63 37
-3.880364 1.550065 -11.534620 115 60 37
-3.641718 1.462577 -10.883587 118 61 44
-3.589242 1.457213 -10.843671 113 61 47
-3.459716 1.412322 -10.509624 119 67 52
-3.198238 1.312775 -9.768858 121 68 51
-3.132321 1.292842 -9.620523 115 60 43
-3.001045 1.245559 -9.268676 112 53 37
-2.975000 1.241667 -9.239712 110 46 36
-2.955255 1.240375 -9.230097 107 38 34
-2.888889 1.226337 -9.125641 99 30 30
-3.008621 1.284483 -9.558322 107 47 44
-2.931362 1.258712 -9.366550 117 73 66
-2.908324 1.256059 -9.346810 109 82 79
-2.858333 1.241667 -9.239712 101 92 97
-2.835759 1.239085 -9.220502 99 108 121
-2.816199 1.237799 -9.210927 93 116 134
-2.796680 1.236515 -9.201372 92 120 141
-2.774327 1.233954 -9.182322 99 126 146
-2.743563 1.227600 -9.135039 106 129 149
-2.713115 1.221311 -9.088241 112 127 147
-2.666667 1.207700 -8.986954 126 128 151
-2.642424 1.204040 -8.959721 138 123 147
-2.615694 1.199195 -8.923665 133 100 123
-2.573705 1.187251 -8.834784 128 78 97
-2.535044 1.176703 -8.756291 140 78 94
-2.492188 1.164062 -8.662230 130 64 77
-2.471735 1.161793 -8.645344 109 42 50
-2.456140 1.161793 -8.645344 100 34 35
-2.450098 1.166340 -8.679181 112 50 46
-2.439216 1.168628 -8.696199 101 43 32
-2.423529 1.168628 -8.696199 102 46 33
-2.400782 1.165200 -8.670697 107 52 38
-2.371234 1.158406 -8.620139 102 49 35
-2.360273 1.160662 -8.636926 100 49 34
-2.344693 1.160662 -8.636926 109 60 45
-2.313346 1.152805 -8.578456 112 67 48
-2.297872 1.152805 -8.578456 112 67 45
-2.236311 1.145053 -8.520771 112 60 36
-2.218810 1.143954 -8.512594 122 66 43
-2.201342 1.142857 -8.504433 115 57 37
-2.155010 1.126654 -8.383860 113 54 38
-2.102136 1.106778 -8.235954 112 54 42
-1.978723 1.056738 -7.863584 116 58 44
-1.964539 1.056738 -7.863584 117 61 46
-1.943463 1.053004 -7.835798 121 63 51
-1.929329 1.053004 -7.835798 117 60 51
-1.915194 1.053004 -7.835798 119 60 54
-1.901060 1.053004 -7.835798 130 71 67
-1.888594 1.053935 -7.842726 127 67 66
-1.882771 1.058615 -7.877552 111 51 50
-1.905797 1.079710 -8.034532 100 39 36
-1.889593 1.078733 -8.027261 106 43 38
-1.868350 1.074842 -7.998308 109 46 39
-1.845601 1.070018 -7.962409 113 50 41
-1.826321 1.067144 -7.941023 108 48 38
-1.808758 1.065237 -7.926830 103 43 33
-1.791258 1.063336 -7.912688 103 43 33
-1.780161 1.065237 -7.926830 98 38 28
-1.773788 1.070018 -7.962409 102 42 31
-1.757848 1.069058 -7.955267 107 47 36
-1.745063 1.070018 -7.962409 107 46 42
-1.741644 1.076784 -8.012758 110 48 48
-1.747715 1.089580 -8.107973 108 46 51
-0.022523 0.671171 -4.994439 51 49 43
-0.013514 0.671171 -4.994439 69 87 76
-0.004505 0.671171 -4.994439 69 103 99
0.004505 0.671171 -4.994439 70 113 120
0.013514 0.671171 -4.994439 74 119 139
0.022523 0.671171 -4.994439 65 109 137
0.031532 0.671171 -4.994439 58 98 127
0.040541 0.671171 -4.994439 67 102 129
0.049550 0.671171 -4.994439 77 106 131
0.352041 0.760204 -5.656966 92 31 34
0.362014 0.759720 -5.653361 97 34 35
0.371738 0.758752 -5.646163 97 35 34
0.381922 0.758752 -5.646163 93 34 33
0.392107 0.758752 -5.646163 90 33 33
0.403061 0.760204 -5.656966 84 29 32
0.413265 0.760204 -5.656966 79 25 31
0.423469 0.760204 -5.656966 77 25 32
0.456426 0.747335 -5.561206 84 40 46
0.482676 0.712067 -5.298759 81 41 50
0.490184 0.709102 -5.276694 86 46 58
0.525755 0.705743 -5.251701 101 47 59
0.533333 0.703245 -5.233111 97 39 50
0.540858 0.700764 -5.214652 94 33 42
0.552865 0.704076 -5.239293 96 32 40
3.698361 3.908197 -29.082371 73 18 21
6.287462 3.645260 -27.125759 81 40 52
6.259819 3.601208 -26.797955 79 36 47
3.047872 0.792553 -5.897688 64 26 37
3.058511 0.792553 -5.897688 68 33 41
3.095909 0.799463 -5.949110 73 40 46
3.106640 0.799463 -5.949110 77 45 50
3.117371 0.799463 -5.949110 80 50 53
3.113485 0.795728 -5.921310 83 54 56
3.115845 0.793609 -5.905541 82 53 55
3.120266 0.792027 -5.893769 78 48 54
3.097962 0.783695 -5.831770 74 42 53
3.082138 0.777053 -5.782349 70 37 51
3.076524 0.773022 -5.752349 67 34 49
3.090909 0.774026 -5.759820 69 33 51
-3.921977 1.529259 -11.534620 116 62 39
-3.344482 1.311037 -9.888655 120 66 40
-3.880364 1.529259 -11.534620 121 65 43
-3.365079 1.333333 -10.056828 120 64 46
-3.215859 1.295154 -9.768858 116 64 50
-3.173770 1.285246 -9.694123 116 64 50
-3.112069 1.267241 -9.558322 116 62 47
-3.019979 1.236593 -9.327153 118 60 47
-2.981211 1.227557 -9.259001 115 52 43
-2.924820 1.211123 -9.135039 111 43 38
-2.905350 1.209877 -9.125641 108 37 36
-2.880000 1.206154 -9.097562 108 38 38
-2.863590 1.206154 -9.097562 108 49 45
-2.847179 1.206154 -9.097562 106 63 58
-2.872008 1.223725 -9.230097 95 69 69
-2.855359 1.223725 -9.230097 88 80 90
-2.835759 1.222453 -9.220502 93 101 120
-2.816199 1.221184 -9.210927 88 109 133
-2.793782 1.218653 -9.191837 89 115 139
-2.771458 1.216132 -9.172827 96 123 145
-2.732308 1.206154 -9.097562 104 130 151
-2.702041 1.200000 -9.051146 114 132 154
-2.661274 1.189080 -8.968780 129 136 159
-2.637097 1.185484 -8.941656 141 132 157
-2.615694 1.183099 -8.923665 135 105 130
-2.573705 1.171315 -8.834784 122 71 92
-2.535044 1.160908 -8.756291 126 64 81
-2.492188 1.148438 -8.662230 121 54 67
-2.471735 1.146199 -8.645344 109 43 50
-2.456140 1.146199 -8.645344 99 36 35
-2.450098 1.150685 -8.679181 104 45 36
-2.444008 1.155206 -8.713284 103 45 32
-2.428291 1.155206 -8.713284 110 52 38
-2.384466 1.141748 -8.611770 106 48 36
-2.366634 1.140640 -8.603417 94 39 26
-2.355685 1.142857 -8.620139 99 46 32
-2.340136 1.142857 -8.620139 112 63 48
-2.313346 1.137331 -8.578456 116 69 51
-2.297872 1.137331 -8.578456 116 71 49
-2.236311 1.129683 -8.520771 106 51 30
-2.220941 1.129683 -8.520771 115 57 37
-2.203455 1.128599 -8.512594 114 53 35
-2.155010 1.111531 -8.383860 116 54 41
-2.098239 1.089898 -8.220689 113 53 42
-1.987533 1.047195 -7.898596 115 56 42
-1.969778 1.045333 -7.884554 116 58 44
-1.950355 1.042553 -7.863584 122 64 53
-1.937888 1.043478 -7.870562 120 61 55
-1.921986 1.042553 -7.863584 114 55 51
-1.902741 1.039788 -7.842726 114 54 53
-1.888594 1.039788 -7.842726 112 52 52
-1.881100 1.043478 -7.870562 107 45 46
-1.886996 1.054708 -7.955267 105 41 41
-1.884477 1.061372 -8.005527 106 42 40
-1.856631 1.053763 -7.948139 112 49 44
-1.837355 1.050938 -7.926830 117 54 47
-1.818182 1.048128 -7.905635 112 49 42
-1.795918 1.043478 -7.870562 105 44 35
-1.780142 1.042553 -7.863584 103 43 33
-1.770667 1.045333 -7.884554 100 40 30
-1.764286 1.050000 -7.919753 105 45 35
-1.757848 1.054708 -7.955267 111 49 41
-1.745063 1.055655 -7.962409 109 46 43
-1.738503 1.060415 -7.998308 112 48 48
-1.747715 1.074954 -8.107973 109 45 48
-0.022523 0.662162 -4.994439 59 60 55
-0.013514 0.662162 -4.994439 77 96 85
-0.004505 0.662162 -4.994439 78 111 110
0.004505 0.662162 -4.994439 77 120 131
0.013514 0.662162 -4.994439 77 121 144
0.022523 0.662162 -4.994439 73 115 145
0.031532 0.662162 -4.994439 71 108 140
0.040541 0.662162 -4.994439 75 107 137
0.049550 0.662162 -4.994439 81 108 134
0.362014 0.749522 -5.653361 79 20 23
0.371501 0.748092 -5.642572 82 23 25
0.381679 0.748092 -5.642572 80 24 25
0.391608 0.747616 -5.638985 76 24 24
0.401780 0.747616 -5.638985 72 22 25
0.411429 0.746667 -5.631824 67 19 24
0.422661 0.748568 -5.646163 64 18 26
0.443312 0.749045 -5.649760 68 26 34
0.446395 0.737304 -5.561206 72 32 38
0.453018 0.731798 -5.519678 73 35 39
0.461538 0.729529 -5.502558 73 37 38
0.470297 0.727723 -5.488937 74 39 38
0.472019 0.715328 -5.395452 77 43 42
0.475105 0.705459 -5.321010 84 49 50
0.480666 0.699584 -5.276694 90 55 60
0.489893 0.699168 -5.273557 97 60 67
0.498812 0.698337 -5.267294 103 64 73
0.508918 0.699168 -5.273557 105 60 72
0.516282 0.696270 -5.251701 103 52 64
0.523894 0.693805 -5.233111 97 43 52
0.531140 0.690952 -5.211588 93 36 44
0.540223 0.690546 -5.208528 93 34 39
0.550265 0.691358 -5.214652 99 38 42
3.359517 3.552870 -26.797955 89 36 39
3.397590 3.542169 -26.717237 88 34 39
3.445783 3.542169 -26.717237 81 30 33
6.257668 3.607362 -27.208967 75 43 56
6.287462 3.596330 -27.125759 74 40 54
6.336391 3.596330 -27.125759 71 35 48
3.072812 0.785571 -5.925266 70 37 42
3.119732 0.786622 -5.933193 83 59 59
3.113772 0.782435 -5.901612 82 57 59
3.114058 0.779841 -5.882044 75 49 55
3.051813 0.761658 -5.744898 69 40 53
3.050323 0.758710 -5.722660 64 34 49
3.060645 0.758710 -5.722660 60 30 46
3.072950 0.759200 -5.726355 60 29 45
-3.842038 1.477707 -11.299520 114 58 39
-3.424658 1.324201 -10.125711 113 58 37
-3.410286 1.325714 -10.137283 118 62 42
-3.365079 1.315193 -10.056828 122 65 46
-3.346939 1.315193 -10.056828 119 62 46
-3.310034 1.307779 -10.000138 116 61 46
-3.215859 1.277533 -9.768858 114 61 48
-3.166848 1.264995 -9.672980 112 58 46
-3.102041 1.245972 -9.527522 114 59 48
-3.032735 1.224921 -9.366550 120 62 51
-2.981211 1.210856 -9.259001 116 54 45
-2.936918 1.199586 -9.172827 108 42 35
-2.905350 1.193416 -9.125641 101 32 27
-2.885920 1.192189 -9.116262 99 32 27
-2.863590 1.189744 -9.097562 97 41 36
-2.855967 1.193416 -9.125641 96 55 50
-2.877998 1.209593 -9.249346 94 69 71
-2.858333 1.208333 -9.239712 105 97 109
-2.835759 1.205821 -9.220502 108 115 137
-2.816199 1.204569 -9.210927 96 113 143
-2.796680 1.203320 -9.201372 93 117 148
-2.771458 1.199586 -9.172827 98 123 151
-2.729508 1.188525 -9.088241 101 126 151
-2.696538 1.181263 -9.032712 109 131 155
-2.655903 1.170535 -8.950679 124 134 161
-2.634441 1.168177 -8.932652 138 133 161
-2.610442 1.164659 -8.905746 136 110 137
-2.568588 1.153082 -8.817220 125 78 102
-2.535044 1.145113 -8.756291 125 65 83
-2.492188 1.132812 -8.662230 120 56 66
-2.466926 1.128405 -8.628525 111 47 49
-2.451362 1.128405 -8.628525 92 32 26
-2.450098 1.135029 -8.679181 92 34 22
-2.446411 1.140610 -8.721851 104 46 32
-2.428291 1.139489 -8.713284 111 51 38
-2.359270 1.114313 -8.520771 107 47 36
-2.321599 1.103711 -8.439698 105 46 35
-2.328530 1.114313 -8.520771 113 55 44
-2.337864 1.126214 -8.611770 116 62 50
-2.306654 1.118611 -8.553638 114 66 50
-2.286814 1.116458 -8.537173 123 76 60
-2.271415 1.116458 -8.537173 123 74 57
-2.251681 1.114313 -8.520771 111 60 41
-2.232023 1.112176 -8.504433 106 49 32
-2.214559 1.111111 -8.496286 110 51 33
-2.131848 1.077066 -8.235954 111 49 34
-2.113068 1.075070 -8.220689 114 52 37
-2.098239 1.075070 -8.220689 113 54 40
-1.973286 1.032947 -7.898596 121 62 48
-1.957295 1.032028 -7.891569 119 59 48
-1.939609 1.030195 -7.877552 112 52 44
-1.923691 1.029281 -7.870562 106 45 42
-1.904425 1.026549 -7.849667 110 49 48
-1.891940 1.027458 -7.856619 113 51 52
-1.881100 1.029281 -7.870562 109 47 48
-1.885305 1.039427 -7.948139 105 41 41
-1.869293 1.038496 -7.941023 106 41 39
-1.851653 1.036640 -7.926830 114 49 46
-1.832442 1.033868 -7.905635 118 53 47
-1.810115 1.029281 -7.870562 110 45 39
-1.795918 1.029281 -7.870562 104 41 34
-1.780142 1.028369 -7.863584 104 41 34
-1.770667 1.031111 -7.884554 104 41 34
-1.762340 1.060329 -8.107973 109 44 41
-0.040747 0.656480 -5.019877 69 42 55
-0.031532 0.653153 -4.994439 65 52 59
-0.022523 0.653153 -4.994439 59 66 59
-0.013514 0.653153 -4.994439 77 100 90
-0.004505 0.653153 -4.994439 80 114 115
0.004505 0.653153 -4.994439 77 117 132
0.013514 0.653153 -4.994439 76 115 142
0.022523 0.653153 -4.994439 80 117 151
0.031532 0.653153 -4.994439 89 120 154
0.040541 0.653153 -4.994439 92 119 150
0.049550 0.653153 -4.994439 84 111 138
0.370323 0.735574 -5.624681 70 19 22
0.381437 0.737444 -5.638985 71 23 24
0.391111 0.736508 -5.631824 71 26 25
0.401780 0.737444 -5.638985 71 27 28
0.411429 0.736508 -5.631824 69 26 29
0.421587 0.736508 -5.631824 67 25 30
0.432020 0.736976 -5.635402 67 27 32
0.442186 0.736976 -5.635402 67 30 34
0.446395 0.727273 -5.561206 69 34 37
0.452455 0.720945 -5.512817 73 40 40
0.460396 0.717822 -5.488937 76 45 43
0.462287 0.705596 -5.395452 79 48 45
0.465507 0.695861 -5.321010 82 51 48
0.471709 0.690887 -5.282980 89 58 55
0.479810 0.688836 -5.267294 95 63 62
0.488441 0.687611 -5.257927 100 65 68
0.497925 0.687611 -5.257927 101 65 70
0.506809 0.686797 -5.251701 100 60 67
0.515976 0.686391 -5.248593 97 51 58
0.523276 0.683559 -5.226943 92 42 47
0.530828 0.681151 -5.208528 90 39 43
0.539589 0.680352 -5.202418 94 41 42
0.548974 0.680352 -5.202418 99 45 42
0.562315 0.685174 -5.239293 102 50 45
3.349398 3.493976 -26.717237 90 41 45
3.357143 3.452381 -26.399176 89 39 42
3.364706 3.411765 -26.088596 84 35 38
3.411765 3.411765 -26.088596 78 33 32
6.325000 3.625000 -27.719135 57 39 49
6.257668 3.558282 -27.208967 57 40 50
6.306748 3.558282 -27.208967 55 36 46
2.995550 0.737444 -5.638985 54 34 44
3.038560 0.745501 -5.700593 48 28 40
3.048843 0.745501 -5.700593 44 25 37
3.070968 0.748387 -5.722660 44 24 36
-3.877238 1.462916 -11.342869 121 63 49
-3.846939 1.459184 -11.313932 119 61 46
-3.821656 1.457325 -11.299520 115 58 40
-3.445728 1.321016 -10.242637 116 58 39
-3.392000 1.307429 -10.137283 119 60 42
-3.373714 1.307429 -10.137283 120 62 44
-3.177243 1.251641 -9.704730 117 60 52
-3.142546 1.244831 -9.651929 120 62 56
-3.084855 1.228786 -9.527522 115 55 49
-3.015840 1.208025 -9.366550 103 42 34
-2.964509 1.194155 -9.259001 100 35 26
-2.920372 1.183040 -9.172827 101 34 26
-2.888889 1.176955 -9.125641 97 32 25
-2.872428 1.176955 -9.125641 96 40 35
-2.925184 1.205480 -9.346810 104 65 62
-2.908324 1.205480 -9.346810 110 87 90
-2.861314 1.192909 -9.249346 119 113 126
-2.841667 1.191667 -9.239712 117 125 149
-2.822060 1.190427 -9.230097 99 116 150
-2.799585 1.187954 -9.210927 97 120 155
-2.774327 1.184265 -9.182322 100 126 156
-2.729508 1.172131 -9.088241 101 128 154
-2.696538 1.164969 -9.032712 109 133 156
-2.653226 1.153226 -8.941656 120 134 159
-2.631791 1.150905 -8.923665 129 125 155
-2.605210 1.146293 -8.887898 132 106 136
-2.563492 1.134921 -8.799726 133 85 112
-2.530049 1.127094 -8.739038 139 78 98
-2.489756 1.116098 -8.653779 131 66 75
-2.466926 1.112840 -8.628525 113 50 49
-2.451362 1.112840 -8.628525 92 33 22
-2.459725 1.123772 -8.713284 91 33 20
-2.458498 1.130435 -8.764944 99 40 29
-2.442688 1.130435 -8.764944 111 51 41
-2.426877 1.130435 -8.764944 111 48 39
-2.321599 1.088487 -8.439698 104 44 34
-2.355685 1.111759 -8.620139 108 50 41
-2.340136 1.111759 -8.620139 109 53 44
-2.324587 1.111759 -8.620139 106 54 43
-2.284615 1.100000 -8.528964 111 61 49
-2.262704 1.096836 -8.504433 116 64 51
-1.987533 1.018700 -7.898596 114 52 37
-1.969778 1.016889 -7.884554 116 54 41
-1.955556 1.016889 -7.884554 114 52 41
-1.939609 1.015986 -7.877552 109 49 41
-1.921986 1.014184 -7.863584 110 49 46
-1.904425 1.012389 -7.849667 117 56 55
-1.895297 1.015084 -7.870562 121 59 60
-1.870968 1.025090 -7.948139 106 41 39
-1.851653 1.022341 -7.926830 116 51 49
-1.832442 1.019608 -7.905635 114 49 45
-1.810115 1.015084 -7.870562 105 38 32
-0.040747 0.647425 -5.019877 71 51 57
-0.031532 0.644144 -4.994439 68 62 62
-0.022523 0.644144 -4.994439 65 77 66
-0.013514 0.644144 -4.994439 85 110 98
-0.004505 0.644144 -4.994439 84 118 121
0.004505 0.644144 -4.994439 75 112 129
0.013514 0.644144 -4.994439 71 110 138
0.022523 0.644144 -4.994439 80 115 149
0.031532 0.644144 -4.994439 93 123 156
0.040541 0.644144 -4.994439 98 126 156
0.049550 0.644144 -4.994439 90 120 148
0.060046 0.660508 -5.121318 80 110 137
0.070012 0.667445 -5.175101 85 110 135
0.381437 0.727273 -5.638985 73 32 32
0.391608 0.727273 -5.638985 76 37 37
0.411168 0.725888 -5.628251 77 39 43
0.419457 0.722678 -5.603363 75 39 44
0.436637 0.717691 -5.564694 73 42 47
0.443062 0.711886 -5.519678 76 45 49
0.451053 0.708798 -5.495739 80 51 51
0.459827 0.707046 -5.482152 84 56 54
0.460606 0.693333 -5.375832 87 59 56
0.458087 0.675325 -5.236200 89 61 58
0.468085 0.676123 -5.242390 91 62 61
0.477541 0.676123 -5.242390 94 64 65
0.486998 0.676123 -5.242390 97 66 69
0.497041 0.676923 -5.248593 99 67 72
0.506509 0.676923 -5.248593 98 61 68
0.514758 0.675325 -5.236200 92 51 60
0.521739 0.672150 -5.211588 87 45 52
0.529894 0.670574 -5.199369 88 45 48
0.536443 0.667055 -5.172083 92 48 48
0.543239 0.663958 -5.148069 92 50 45
0.558358 0.670968 -5.202418 91 51 43
3.309524 3.404762 -26.399176 84 42 46
3.357143 3.404762 -26.399176 74 33 34
3.315942 3.315942 -25.710501 71 32 32
3.362319 3.315942 -25.710501 67 33 30
6.325000 3.575000 -27.719135 36 35 42
6.296296 3.530864 -27.376923 37 36 44
6.306748 3.509202 -27.208967 38 35 44
6.214286 3.404762 -26.399176 39 35 43
6.206490 3.374631 -26.165554 39 36 41
2.990512 0.723593 -5.610451 34 29 35
3.000633 0.723593 -5.610451 31 27 33
-3.907217 1.453608 -11.430571 124 64 54
-3.886598 1.453608 -11.430571 118 59 47
-3.836317 1.442455 -11.342869 112 54 42
-3.806123 1.438776 -11.313932 115 57 41
-3.761724 1.429658 -11.242234 118 60 41
-3.750953 1.433291 -11.270804 119 61 42
-3.142546 1.227421 -9.651929 116 56 55
-3.084855 1.211600 -9.527522 108 46 44
-3.025424 1.194915 -9.396317 101 37 33
-2.970711 1.179916 -9.278372 99 34 25
-2.932503 1.171340 -9.210927 103 36 28
-2.912863 1.170125 -9.201372 104 40 32
-2.946921 1.197452 -9.416266 118 80 79
-2.923729 1.194915 -9.396317 111 92 95
-2.861314 1.176225 -9.249346 109 111 121
-2.841667 1.175000 -9.239712 108 121 144
-2.825000 1.175000 -9.239712 94 114 147
-2.802495 1.172557 -9.220502 96 120 155
-2.780083 1.170125 -9.201372 101 129 158
-2.729508 1.155738 -9.088241 101 131 155
-2.696538 1.148676 -9.032712 109 138 158
-2.653226 1.137097 -8.941656 122 140 163
-2.631791 1.134809 -8.923665 128 128 158
-2.605210 1.130260 -8.887898 127 104 135
-2.563492 1.119048 -8.799726 125 79 108
-2.530049 1.111330 -8.739038 139 77 101
-2.489756 1.100488 -8.653779 123 57 69
-2.471735 1.099415 -8.645344 99 33 33
-2.456140 1.099415 -8.645344 92 30 20
-2.452497 1.104799 -8.687682 93 34 23
-2.458498 1.114625 -8.764944 97 38 30
-2.428291 1.108055 -8.713284 106 46 40
-2.426877 1.114625 -8.764944 108 47 42
-2.310606 1.068182 -8.399737 104 43 39
-2.278044 1.081496 -8.504433 93 41 36
-1.915194 0.996466 -7.835798 114 50 48
-1.904425 0.998230 -7.849667 111 47 47
-1.848350 1.006244 -7.912688 119 51 50
-1.834077 1.006244 -7.912688 112 44 42
-0.050286 0.644571 -5.068642 57 38 34
-0.040747 0.638370 -5.019877 81 67 64
-0.031532 0.635135 -4.994439 74 73 65
-0.022523 0.635135 -4.994439 69 82 68
-0.013514 0.635135 -4.994439 90 116 103
-0.004505 0.635135 -4.994439 85 121 124
0.004505 0.635135 -4.994439 74 114 130
0.013514 0.635135 -4.994439 73 114 140
0.022523 0.635135 -4.994439 79 120 149
0.031532 0.635135 -4.994439 91 127 155
0.040541 0.635135 -4.994439 100 134 161
0.049550 0.635135 -4.994439 93 127 154
0.059259 0.642735 -5.054201 85 116 144
0.069606 0.654292 -5.145083 86 113 139
0.079347 0.658110 -5.175101 94 116 140
0.440322 0.697588 -5.485543 84 56 67
0.451053 0.698885 -5.495739 87 60 68
0.459827 0.697157 -5.482152 91 64 70
0.444965 0.660422 -5.193281 92 65 70
0.454333 0.660422 -5.193281 90 63 68
0.467257 0.665487 -5.233111 89 62 67
0.476978 0.665880 -5.236200 90 61 67
0.486710 0.666273 -5.239293 93 63 71
0.496454 0.666667 -5.242390 95 65 76
0.505910 0.666667 -5.242390 93 61 75
0.513848 0.664702 -5.226943 86 52 68
0.521127 0.661972 -5.205471 80 46 60
0.527114 0.657726 -5.172083 78 45 54
0.533952 0.654672 -5.148069 75 43 47
0.542609 0.653913 -5.142100 70 39 38
0.552525 0.654672 -5.148069 68 41 35
3.357143 3.357143 -26.399176 55 25 23
3.394659 3.347181 -26.320841 52 25 21
3.401760 3.307918 -26.012091 49 27 21
6.325000 3.525000 -27.719135 38 55 62
6.355140 3.514019 -27.632782 37 54 62
6.306748 3.460123 -27.208967 39 54 63
6.222222 3.387387 -26.637007 42 57 65
6.214286 3.357143 -26.399176 44 57 64
6.224852 3.337278 -26.242968 40 55 59
6.309524 3.357143 -26.399176 36 53 54
2.990512 0.713472 -5.610451 25 38 38
-3.892169 1.427471 -11.386551 120 57 49
-3.871630 1.427471 -11.386551 109 47 37
-3.836317 1.421995 -11.342869 105 45 34
-3.806123 1.418367 -11.313932 116 55 41
-3.785714 1.418367 -11.313932 121 60 41
-3.111593 1.204767 -9.610101 115 49 52
-3.061093 1.191854 -9.507098 119 53 51
-2.970711 1.163180 -9.278372 116 49 42
-2.940678 1.177966 -9.396317 115 77 78
-2.914467 1.174234 -9.366550 104 86 91
-2.861314 1.159541 -9.249346 98 103 114
-2.841667 1.158333 -9.239712 99 116 139
-2.822060 1.157128 -9.230097 92 114 148
-2.799585 1.154725 -9.210927 92 119 155
-2.771458 1.149948 -9.172827 94 126 155
-2.729508 1.139344 -9.088241 96 130 153
-2.693794 1.131231 -9.023523 106 137 156
-2.653226 1.120968 -8.941656 125 145 167
-2.629146 1.117588 -8.914697 139 139 170
-2.602603 1.113113 -8.879002 134 111 147
-2.563492 1.103175 -8.799726 122 76 111
-2.530049 1.095567 -8.739038 134 74 103
-2.492188 1.085938 -8.662230 113 48 66
-2.471735 1.083821 -8.645344 87 22 29
-2.456140 1.083821 -8.645344 93 33 30
-2.445312 1.085938 -8.662230 92 35 29
-2.436827 1.089128 -8.687682 93 35 33
-2.414062 1.085938 -8.662230 94 36 35
-2.384466 1.079612 -8.611770 97 37 36
-2.310606 1.053030 -8.399737 98 38 37
-2.353398 1.079612 -8.611770 89 29 28
-2.337864 1.079612 -8.611770 81 23 21
-0.050343 0.636156 -5.074441 57 48 35
-0.040909 0.631818 -5.039843 80 76 66
-0.031532 0.626126 -4.994439 71 76 64
-0.022523 0.626126 -4.994439 62 82 67
-0.013514 0.626126 -4.994439 81 112 100
-0.004505 0.626126 -4.994439 79 117 121
0.004505 0.626126 -4.994439 74 116 132
0.013514 0.626126 -4.994439 76 120 144
0.022523 0.626126 -4.994439 81 125 152
0.031532 0.626126 -4.994439 89 130 155
0.040541 0.626126 -4.994439 100 137 161
0.049550 0.626126 -4.994439 99 134 161
0.058559 0.626126 -4.994439 91 123 152
0.069284 0.642032 -5.121318 86 115 140
0.440322 0.687693 -5.485543 66 44 57
0.460111 0.687693 -5.485543 66 46 57
0.445226 0.651435 -5.196323 65 46 53
0.454599 0.651435 -5.196323 62 43 49
0.467257 0.656047 -5.233111 61 41 48
0.476978 0.656434 -5.236200 61 40 49
0.486998 0.657210 -5.242390 62 40 51
0.496454 0.657210 -5.242390 62 40 53
0.505910 0.657210 -5.242390 57 35 49
0.515366 0.657210 -5.242390 50 27 43
0.523276 0.655274 -5.226943 47 24 39
0.529894 0.651817 -5.199369 44 23 33
0.533952 0.645386 -5.148069 38 20 24
0.542609 0.644638 -5.142100 31 15 13
0.551884 0.644638 -5.142100 28 17 10
3.781250 4.343750 -34.648918 29 22 12
3.906250 4.343750 -34.648918 32 31 18
3.819549 4.180451 -33.346329 31 31 18
4.000000 4.118518 -32.852306 27 15 14
3.889655 3.834483 -30.586632 34 19 16
3.690323 3.587097 -28.613300 32 22 15
3.741935 3.587097 -28.613300 30 25 16
6.345679 3.432099 -27.376923 34 64 72
6.222222 3.339339 -26.637007 38 67 75
6.214286 3.309524 -26.399176 41 70 77
6.224852 3.289941 -26.242968 41 70 75
6.309524 3.309524 -26.399176 41 71 74
6.607350 2.150870 -17.156912 43 57 58
2.980392 0.703352 -5.610451 24 54 48
2.990512 0.703352 -5.610451 23 53 48
3.000633 0.703352 -5.610451 24 54 49
-3.892169 1.406932 -11.386551 116 51 46
-3.871630 1.406932 -11.386551 109 45 38
-3.851091 1.406932 -11.386551 110 47 39
-3.111593 1.187432 -9.610101 111 41 48
-2.987448 1.146443 -9.278372 113 44 45
-2.955255 1.140479 -9.230097 114 44 41
-2.931362 1.157339 -9.366550 93 51 56
-2.914467 1.157339 -9.366550 94 76 84
-2.858333 1.141667 -9.239712 89 96 111
-2.838710 1.140479 -9.230097 92 112 136
-2.813278 1.136930 -9.201372 90 115 150
-2.788004 1.133402 -9.172827 84 113 149
-2.762887 1.129897 -9.144457 87 121 150
-2.729508 1.122951 -9.088241 96 131 154
-2.693794 1.114954 -9.023523 107 137 157
-2.653226 1.104839 -8.941656 129 146 170
-2.626506 1.100402 -8.905746 143 142 176
-2.594810 1.093812 -8.852418 148 126 166
-2.560951 1.086224 -8.791004 141 97 140
-2.530049 1.079803 -8.739038 137 81 117
-2.492188 1.070312 -8.662230 113 53 79
-2.474146 1.069268 -8.653779 93 33 49
-2.456140 1.068226 -8.645344 92 35 43
-2.440546 1.068226 -8.645344 86 32 36
-2.424951 1.068226 -8.645344 89 38 39
-2.400000 1.064078 -8.611770 95 43 44
-2.357006 1.051823 -8.512594 93 39 39
-2.288931 1.028143 -8.320941 90 34 33
-2.248609 1.016698 -8.228314 93 33 31
-2.328820 1.059961 -8.578456 99 40 36
-2.335938 1.070312 -8.662230 110 51 50
-2.309038 1.065112 -8.620139 113 53 52
-0.050343 0.627002 -5.074441 61 65 48
-0.040909 0.622727 -5.039843 72 80 67
-0.031532 0.617117 -4.994439 67 84 72
-0.022523 0.617117 -4.994439 69 96 82
-0.013514 0.617117 -4.994439 79 115 107
-0.004505 0.617117 -4.994439 73 115 122
0.004505 0.617117 -4.994439 74 118 136
0.013514 0.617117 -4.994439 79 123 147
0.022523 0.617117 -4.994439 83 126 151
0.031532 0.617117 -4.994439 91 129 153
0.040541 0.617117 -4.994439 98 133 155
0.049550 0.617117 -4.994439 104 139 165
0.058559 0.617117 -4.994439 103 135 162
0.068966 0.629885 -5.097772 93 121 148
0.439778 0.676961 -5.478766 24 13 26
0.445226 0.642062 -5.196323 28 18 26
0.454333 0.641686 -5.193281 26 16 24
0.467257 0.646608 -5.233111 26 16 24
0.523276 0.645846 -5.226943 26 19 28
0.529894 0.642438 -5.199369 27 23 28
0.533952 0.636100 -5.148069 25 23 24
0.542609 0.635362 -5.142100 21 21 18
0.551884 0.635362 -5.142100 20 23 18
3.781250 4.281250 -34.648918 20 27 19
3.906250 4.281250 -34.648918 16 28 18
3.819549 4.120301 -33.346329 16 29 20
3.595819 3.818815 -30.906353 17 29 23
3.626297 3.792387 -30.692467 17 27 22
3.681661 3.792387 -30.692467 18 25 23
3.870968 3.928315 -31.792555 21 24 24
4.059259 4.059259 -32.852306 24 24 25
4.118518 4.059259 -32.852306 26 27 26
3.889655 3.779310 -30.586632 29 32 28
3.904437 3.740614 -30.273457 28 36 28
3.741935 3.535484 -28.613300 28 41 31
6.174174 3.291291 -26.637007 41 79 90
6.166667 3.261905 -26.399176 43 81 90
6.195846 3.252226 -26.320841 45 84 91
6.243323 3.252226 -26.320841 47 87 92
6.309524 3.261905 -26.399176 47 90 93
5.484163 2.479638 -20.068151 51 94 102
5.470852 2.457399 -19.888168 52 93 102
5.542601 2.457399 -19.888168 55 93 104
6.624506 2.166008 -17.529888 49 79 89
6.656126 2.166008 -17.529888 50 79 87
6.545455 2.119923 -17.156912 53 78 82
6.488550 2.091603 -16.927715 49 72 76
6.607350 2.119923 -17.156912 44 65 67
6.596226 2.067924 -16.736082 26 70 54
6.432234 2.007326 -16.245647 27 70 60
6.461538 2.007326 -16.245647 29 72 63
7.174089 2.218623 -17.955715 36 77 73
7.478992 2.302521 -18.634712 42 81 78
7.512605 2.302521 -18.634712 46 85 82
-3.877238 1.381074 -11.342869 118 53 50
-3.856777 1.381074 -11.342869 113 49 44
-3.826531 1.377551 -11.313932 112 49 40
-3.806123 1.377551 -11.313932 116 54 41
-3.145674 1.182913 -9.715360 102 31 41
-2.971904 1.123829 -9.230097 105 35 40
-2.933884 1.115703 -9.163350 106 36 37
-2.911340 1.113402 -9.144457 104 34 34
-2.891864 1.112255 -9.135039 108 40 40
-2.899273 1.121495 -9.210927 100 41 43
-2.925184 1.138040 -9.346810 89 45 52
-2.908324 1.138040 -9.346810 92 69 81
-2.858333 1.125000 -9.239712 96 99 116
-2.829875 1.120332 -9.201372 98 114 141
-2.804550 1.116856 -9.172827 97 116 154
-2.779382 1.113402 -9.144457 87 112 151
-2.762887 1.113402 -9.144457 91 121 154
-2.732308 1.107692 -9.097562 107 136 162
-2.704801 1.103166 -9.060391 118 142 165
-2.669371 1.095335 -8.996068 138 148 178
-2.629146 1.085427 -8.914697 146 136 178
-2.594810 1.077844 -8.852418 158 133 180
-2.563492 1.071429 -8.799726 161 121 169
-2.530049 1.064039 -8.739038 136 86 129
-2.501961 1.058824 -8.696199 108 54 85
-2.476562 1.054688 -8.662230 91 38 61
-2.460938 1.054688 -8.662230 73 23 38
-2.442927 1.053658 -8.653779 64 17 27
-2.424951 1.052632 -8.645344 69 24 31
-2.404669 1.050584 -8.628525 80 34 37
-2.339048 1.028571 -8.447736 86 37 39
-2.295390 1.015993 -8.344424 94 43 42
-2.280339 1.015993 -8.344424 101 47 45
-2.351562 1.054688 -8.662230 103 48 45
-2.335938 1.054688 -8.662230 106 51 48
-2.309038 1.049563 -8.620139 108 53 50
-0.040909 0.613636 -5.039843 69 87 80
-0.031532 0.608108 -4.994439 72 97 92
-0.022523 0.608108 -4.994439 82 113 108
-0.013514 0.608108 -4.994439 84 121 121
-0.004505 0.608108 -4.994439 74 116 130
0.004505 0.608108 -4.994439 77 122 144
0.013514 0.608108 -4.994439 83 125 152
0.022523 0.608108 -4.994439 87 127 154
0.031532 0.608108 -4.994439 97 132 157
0.040541 0.608108 -4.994439 102 135 160
0.049550 0.608108 -4.994439 108 140 167
0.058559 0.608108 -4.994439 109 139 167
0.067568 0.608108 -4.994439 100 127 155
0.443407 0.630105 -5.175101 23 28 34
0.449334 0.625362 -5.136146 22 27 33
0.458599 0.625362 -5.136146 22 27 33
0.503687 0.612592 -5.031267 27 37 39
0.512762 0.612592 -5.031267 31 42 42
0.528129 0.619977 -5.091919 29 42 40
0.537313 0.619977 -5.091919 26 42 38
0.546498 0.619977 -5.091919 27 44 38
3.781250 4.218750 -34.648918 24 44 38
3.843750 4.218750 -34.648918 19 43 34
3.906250 4.218750 -34.648918 17 43 35
3.721612 3.956044 -32.491295 19 46 40
3.583333 3.750000 -30.799038 23 50 45
3.626297 3.737024 -30.692467 27 51 47
3.681661 3.737024 -30.692467 29 50 47
3.789474 3.789474 -31.123240 31 49 47
3.845614 3.789474 -31.123240 33 48 47
3.834483 3.724138 -30.586632 35 50 49
3.785235 3.624161 -29.765514 38 55 51
3.690323 3.483871 -28.613300 39 61 54
3.682540 3.428571 -28.159121 38 66 56
7.531250 4.218750 -34.648918 69 97 114
7.593750 4.218750 -34.648918 71 98 115
5.840909 3.068182 -25.199213 61 100 115
5.903134 3.076923 -25.271006 60 100 113
5.948718 3.076923 -25.271006 61 101 112
6.224852 3.195266 -26.242968 63 105 114
6.272189 3.195266 -26.242968 62 107 114
5.626168 2.523365 -20.724586 60 104 115
5.484163 2.443439 -20.068151 59 103 116
5.470852 2.421525 -19.888168 59 102 115
5.738318 2.523365 -20.724586 59 101 115
5.775701 2.523365 -20.724586 60 100 116
5.813084 2.523365 -20.724586 61 99 117
6.440546 2.105263 -17.290688 41 90 95
6.471735 2.105263 -17.290688 44 90 96
6.554028 2.121808 -17.426567 48 92 98
6.598425 2.125984 -17.460873 51 91 99
6.629921 2.125984 -17.460873 54 92 99
6.609375 2.109375 -17.324459 58 92 98
6.551060 2.080925 -17.090796 53 84 89
6.519084 2.061069 -16.927715 46 75 78
6.549618 2.061069 -16.927715 43 76 72
6.669246 2.088975 -17.156912 45 83 70
6.573055 2.049336 -16.831352 41 85 68
6.566038 2.037736 -16.736082 40 88 73
6.559100 2.026266 -16.641882 40 90 79
6.589118 2.026266 -16.641882 42 91 85
6.485294 1.985294 -16.305374 45 93 89
7.116466 2.168675 -17.811493 52 96 95
7.177419 2.177419 -17.883312 56 100 99
7.209677 2.177419 -17.883312 54 98 97
-3.867347 1.357143 -11.313932 113 49 49
-3.846939 1.357143 -11.313932 110 47 42
-3.821656 1.355414 -11.299520 104 42 33
-3.777215 1.346835 -11.228004 106 45 32
-3.756962 1.346835 -11.228004 114 52 37
-3.736709 1.346835 -11.228004 114 52 37
-3.716456 1.346835 -11.228004 109 46 35
-2.968815 1.106029 -9.220502 113 40 50
-2.949117 1.104881 -9.210927 116 43 50
-2.932503 1.104881 -9.210927 112 39 46
-2.915888 1.104881 -9.210927 107 36 43
-2.957627 1.127119 -9.396317 102 39 46
-2.931362 1.123548 -9.366550 103 53 63
-2.911392 1.122363 -9.356669 114 83 98
-2.858333 1.108333 -9.239712 127 116 138
-2.832814 1.104881 -9.210927 121 124 155
-2.813278 1.103734 -9.201372 101 111 151
-2.779382 1.096907 -9.144457 90 105 147
-2.762887 1.096907 -9.144457 95 114 153
-2.746392 1.096907 -9.144457 108 123 160
-2.715897 1.091282 -9.097562 121 129 165
-2.688458 1.086823 -9.060391 127 123 163
-2.653144 1.079108 -8.996068 131 112 162
-2.613065 1.069347 -8.914697 157 126 182
-2.573705 1.059761 -8.834784 147 107 163
-2.547619 1.055556 -8.799726 98 54 102
-2.514286 1.048276 -8.739038 75 30 67
-2.486274 1.043137 -8.696199 66 22 50
-2.463343 1.040078 -8.670697 49 8 29
-2.445312 1.039062 -8.662230 42 4 20
-2.424951 1.037037 -8.645344 43 8 19
-2.404669 1.035019 -8.628525 51 15 22
-2.357006 1.021113 -8.512594 66 24 30
-2.323810 1.013333 -8.447736 78 33 35
-2.416750 1.060818 -8.843593 86 40 37
-2.391261 1.056604 -8.808464 91 43 39
-2.340509 1.041096 -8.679181 89 44 38
-2.315789 1.037037 -8.645344 85 42 35
-0.051193 0.618964 -5.160048 88 112 112
-0.041308 0.610442 -5.088998 86 110 117
-0.031818 0.604545 -5.039843 82 110 121
-0.022523 0.599099 -4.994439 90 121 133
-0.013514 0.599099 -4.994439 86 122 137
-0.004505 0.599099 -4.994439 77 116 141
0.004505 0.599099 -4.994439 78 118 148
0.013514 0.599099 -4.994439 93 129 161
0.022523 0.599099 -4.994439 99 134 166
0.031532 0.599099 -4.994439 105 135 165
0.040541 0.599099 -4.994439 108 136 165
0.049550 0.599099 -4.994439 110 137 166
0.058559 0.599099 -4.994439 109 136 165
0.067568 0.599099 -4.994439 102 129 158
0.357405 0.651163 -5.428472 21 40 40
0.378611 0.653964 -5.451828 17 34 43
0.388445 0.653964 -5.451828 20 37 47
0.440069 0.616097 -5.136146 22 46 50
0.449074 0.615741 -5.133173 20 44 47
0.458333 0.615741 -5.133173 19 43 45
0.467322 0.615385 -5.130204 18 43 44
0.476576 0.615385 -5.130204 20 45 46
0.484429 0.613610 -5.115411 22 47 48
0.490826 0.610092 -5.086080 23 49 48
0.494331 0.603175 -5.028414 26 52 49
0.500000 0.599099 -4.994439 31 58 53
0.509009 0.599099 -4.994439 33 60 55
0.521838 0.603517 -5.031267 33 60 55
0.531215 0.603859 -5.034122 31 58 53
0.540295 0.603859 -5.034122 27 57 52
0.551253 0.605923 -5.051323 26 57 52
3.843750 4.156250 -34.648918 26 59 54
3.906250 4.156250 -34.648918 26 62 56
3.527778 3.694444 -30.799038 28 64 60
3.498305 3.606780 -30.068214 30 68 64
3.516778 3.570470 -29.765514 33 69 64
3.534884 3.534884 -29.468847 35 69 63
3.588040 3.534884 -29.468847 36 69 62
3.677852 3.570470 -29.765514 36 67 61
3.731544 3.570470 -29.765514 38 68 63
3.722772 3.511551 -29.274334 42 73 68
3.631746 3.377778 -28.159121 46 79 73
3.547401 3.253823 -27.125759 44 82 75
3.574468 3.234043 -26.960861 45 88 78
7.343750 4.156250 -34.648918 70 106 122
7.406250 4.156250 -34.648918 75 109 127
7.468750 4.156250 -34.648918 78 109 129
7.531250 4.156250 -34.648918 81 108 131
7.593750 4.156250 -34.648918 83 107 131
7.656250 4.156250 -34.648918 81 107 130
7.718750 4.156250 -34.648918 79 106 128
7.492537 3.970149 -33.097473 68 104 126
6.769231 3.558528 -29.665964 69 106 126
6.375000 3.325000 -27.719135 70 108 127
5.840909 3.022727 -25.199213 71 108 126
5.903134 3.031339 -25.271006 71 107 125
5.948718 3.031339 -25.271006 73 107 124
6.063401 3.066283 -25.562315 73 106 123
6.074499 3.048711 -25.415825 69 105 121
5.474654 2.451613 -20.438072 73 112 127
5.588785 2.485981 -20.724586 74 113 128
5.706161 2.521327 -21.019249 74 112 129
5.869249 2.576271 -21.477295 73 110 129
5.851319 2.551559 -21.271278 72 109 128
5.889688 2.551559 -21.271278 70 107 127
5.928058 2.551559 -21.271278 66 102 125
5.813084 2.485981 -20.724586 63 99 124
6.484375 2.078125 -17.324459 46 96 103
6.554028 2.090373 -17.426567 48 96 101
6.585462 2.090373 -17.426567 51 98 104
6.603921 2.086275 -17.392399 54 99 105
6.583658 2.070039 -17.257050 55 96 102
6.551060 2.050096 -17.090796 54 93 100
6.469697 2.015152 -16.799475 51 88 95
6.463277 2.003767 -16.704563 46 85 87
6.397031 1.974026 -16.456629 48 90 86
6.573055 2.018975 -16.831352 45 90 83
6.566038 2.007547 -16.736082 44 93 88
6.559100 1.996248 -16.641882 47 96 93
6.491682 1.966728 -16.395792 48 96 96
6.521257 1.966728 -16.395792 51 99 103
7.045726 2.115308 -17.634439 57 100 106
7.148594 2.136546 -17.811493 58 101 106
7.152000 2.128000 -17.740246 51 97 101
6.988327 2.070039 -17.257050 42 90 94
-3.867347 1.336735 -11.313932 117 55 56
-3.846939 1.336735 -11.313932 112 51 48
-3.811944 1.331639 -11.270804 107 46 39
-3.772440 1.324905 -11.213809 105 45 35
-3.756962 1.326582 -11.228004 107 47 35
-3.736709 1.326582 -11.228004 104 44 32
-3.131952 1.142857 -9.672980 107 35 46
-2.990576 1.097382 -9.288087 110 38 49
-2.952183 1.089397 -9.220502 108 36 47
-2.935551 1.089397 -9.220502 104 32 43
-2.962025 1.105485 -9.356669 108 39 49
-2.957627 1.110170 -9.396317 108 46 54
-2.928270 1.105485 -9.356669 100 50 59
-2.911392 1.105485 -9.356669 103 69 81
-2.864301 1.093946 -9.259001 119 102 121
-2.841667 1.091667 -9.239712 125 119 146
-2.813278 1.087137 -9.201372 112 113 149
-2.790890 1.084886 -9.182322 96 103 144
-2.771458 1.083764 -9.172827 95 107 148
-2.754912 1.083764 -9.172827 109 118 158
-2.738366 1.083764 -9.172827 121 119 161
-2.730290 1.087137 -9.201372 112 97 145
-2.702479 1.082645 -9.163350 97 70 126
-2.650357 1.068298 -9.041920 107 72 131
-2.604839 1.056452 -8.941656 85 47 102
-2.588710 1.056452 -8.941656 54 17 63
-2.577778 1.058586 -8.959721 38 2 36
-2.500000 1.039683 -8.799726 45 12 32
-2.457311 1.028459 -8.704733 43 10 27
-2.429688 1.023438 -8.662230 44 13 27
-2.404669 1.019455 -8.628525 48 15 26
-2.377541 1.014521 -8.586760 52 15 22
-2.500000 1.073771 -9.088241 55 15 18
-2.468432 1.067210 -9.032712 58 16 17
-2.422535 1.054326 -8.923665 60 19 15
-2.375372 1.040715 -8.808464 56 18 10
-2.322581 1.024438 -8.670697 51 14 5
-0.051734 0.616108 -5.214652 104 135 145
-0.041667 0.606481 -5.133173 98 126 147
-0.032202 0.602645 -5.100703 91 121 146
-0.022714 0.595116 -5.036981 92 124 147
-0.013514 0.590090 -4.994439 84 120 145
-0.004505 0.590090 -4.994439 77 113 144
0.004505 0.590090 -4.994439 81 117 152
0.013514 0.590090 -4.994439 97 133 167
0.022523 0.590090 -4.994439 105 138 172
0.031532 0.590090 -4.994439 110 140 170
0.040541 0.590090 -4.994439 109 137 166
0.049550 0.590090 -4.994439 110 137 164
0.058559 0.590090 -4.994439 108 135 164
0.067568 0.590090 -4.994439 105 132 162
0.076577 0.590090 -4.994439 99 125 159
0.277372 0.637470 -5.395452 32 56 68
0.286930 0.637082 -5.392172 31 54 66
0.296296 0.636308 -5.385624 31 54 62
0.357624 0.641764 -5.431796 23 55 55
0.368550 0.643735 -5.448479 22 52 57
0.378146 0.643339 -5.445134 24 53 62
0.388206 0.643735 -5.448479 28 56 67
0.398279 0.644130 -5.451828 30 58 69
0.408113 0.644130 -5.451828 29 58 68
0.437346 0.643735 -5.448479 26 57 64
0.449074 0.606481 -5.133173 24 59 61
0.458068 0.606131 -5.130204 23 58 60
0.467052 0.605780 -5.127239 22 59 60
0.475202 0.604383 -5.115411 24 62 63
0.481651 0.600917 -5.086080 26 65 65
0.488584 0.598173 -5.062856 29 68 65
0.494892 0.594779 -5.034122 34 72 67
0.500000 0.590090 -4.994439 37 73 69
0.509009 0.590090 -4.994439 38 74 70
0.518018 0.590090 -4.994439 38 72 69
0.527027 0.590090 -4.994439 36 70 69
0.536036 0.590090 -4.994439 34 69 68
0.548442 0.593768 -5.025566 31 68 68
3.843750 4.093750 -34.648918 30 71 70
3.906250 4.093750 -34.648918 32 75 74
3.409396 3.516778 -29.765514 33 77 76
3.428571 3.481728 -29.468847 36 81 78
3.447368 3.447368 -29.178036 39 84 79
3.454545 3.402597 -28.799101 42 85 77
3.552632 3.447368 -29.178036 41 84 74
3.617162 3.458746 -29.274334 40 81 72
3.669967 3.458746 -29.274334 40 79 73
3.686275 3.424837 -28.987329 47 84 82
3.631746 3.326984 -28.159121 50 90 89
3.525836 3.185410 -26.960861 51 94 91
3.510448 3.128358 -26.477980 51 99 93
3.558209 3.128358 -26.477980 52 101 95
6.750929 3.895911 -32.974434 60 96 112
6.473498 3.703180 -31.343191 58 93 112
6.586573 3.703180 -31.343191 63 98 117
7.343750 4.093750 -34.648918 68 103 123
7.406250 4.093750 -34.648918 71 103 124
7.468750 4.093750 -34.648918 73 104 127
7.531250 4.093750 -34.648918 80 106 131
7.593750 4.093750 -34.648918 83 109 136
7.656250 4.093750 -34.648918 86 112 139
7.718750 4.093750 -34.648918 83 112 138
7.781250 4.093750 -34.648918 78 111 136
7.492537 3.910448 -33.097473 75 110 134
6.861017 3.552542 -30.068214 70 107 130
6.915254 3.552542 -30.068214 70 107 129
6.425000 3.275000 -27.719135 77 110 133
6.076246 3.073314 -26.012091 83 114 136
6.069767 3.046512 -25.785242 85 114 136
6.134111 3.055394 -25.860416 82 110 132
6.074499 3.002865 -25.415825 76 104 126
6.016901 2.952113 -24.986261 70 101 121
6.061972 2.952113 -24.986261 68 101 119
6.234637 2.927374 -24.776880 81 116 137
6.175824 2.879121 -24.368469 81 116 138
6.678466 3.091445 -26.165554 79 114 135
5.717073 2.556098 -21.634447 81 116 134
5.551402 2.448598 -20.724586 80 115 134
5.750000 2.519231 -21.322411 82 116 136
5.873171 2.556098 -21.634447 85 115 138
5.955774 2.574939 -21.793915 84 114 139
5.907990 2.537530 -21.477295 82 112 139
5.889688 2.513190 -21.271278 79 109 137
5.928058 2.513190 -21.271278 74 104 134
5.840375 2.460094 -20.821884 70 101 132
7.525424 2.960452 -25.056845 76 111 139
6.522593 2.058939 -17.426567 57 107 116
6.554028 2.058939 -17.426567 59 108 115
6.585462 2.058939 -17.426567 61 110 117
6.578125 2.046875 -17.324459 60 106 115
6.558139 2.031008 -17.190161 58 102 111
6.500956 2.003824 -16.960083 56 99 108
6.433145 1.973635 -16.704563 55 98 107
6.367347 1.944341 -16.456629 52 95 101
6.361624 1.933579 -16.365541 47 91 94
6.553672 1.973635 -16.704563 42 90 93
6.534579 1.958879 -16.579670 46 94 98
6.564486 1.958879 -16.579670 48 95 103
6.631579 1.969925 -16.673164 53 97 108
7.059761 2.087649 -17.669567 56 98 110
7.148594 2.104418 -17.811493 57 97 109
-3.867347 1.316326 -11.313932 123 64 66
-3.876607 1.326478 -11.401186 115 58 54
-3.821656 1.314650 -11.299520 110 52 45
-3.791614 1.311309 -11.270804 110 51 42
-3.800256 1.321383 -11.357392 111 53 42
-3.201774 1.144124 -9.833839 115 46 55
-3.091496 1.110872 -9.548034 111 44 54
-3.074273 1.110872 -9.548034 107 40 50
-3.008475 1.093220 -9.396317 100 34 44
-2.990415 1.099042 -9.446350 112 48 57
-2.957627 1.093220 -9.396317 103 46 53
-2.940678 1.093220 -9.396317 74 27 33
-2.914467 1.089757 -9.366550 60 26 34
-2.867294 1.078370 -9.268676 75 57 67
-2.841667 1.075000 -9.239712 94 85 102
-2.816199 1.071651 -9.210927 103 101 126
-2.790890 1.068323 -9.182322 100 103 136
-2.771458 1.067218 -9.172827 100 107 145
-2.757764 1.068323 -9.182322 112 114 157
-2.749740 1.071651 -9.210927 117 108 154
-2.747391 1.077244 -9.259001 96 77 127
-2.725000 1.075000 -9.239712 65 34 89
-2.688728 1.067218 -9.172827 62 27 82
-2.644831 1.056295 -9.078938 42 10 58
-2.639260 1.060637 -9.116262 40 10 47
-2.622816 1.060637 -9.116262 39 14 36
-2.579324 1.056295 -9.078938 48 22 32
-2.509018 1.034068 -8.887898 49 23 32
-2.451231 1.016749 -8.739038 61 33 45
-2.435468 1.016749 -8.739038 70 39 50
-2.483607 1.057377 -9.088241 54 14 13
-2.429869 1.041372 -8.950679 51 13 7
-2.375372 1.024826 -8.808464 53 16 8
-2.322581 1.008798 -8.670697 53 19 9
-2.304688 1.007812 -8.662230 49 19 9
-0.051734 0.606702 -5.214652 99 132 156
-0.041885 0.600349 -5.160048 94 123 154
-0.032370 0.596532 -5.127239 87 115 151
-0.022883 0.590389 -5.074441 90 120 155
-0.013613 0.585366 -5.031267 82 114 147
-0.004527 0.584041 -5.019877 75 109 145
0.004505 0.581081 -4.994439 79 115 151
0.013514 0.581081 -4.994439 91 127 160
0.022523 0.581081 -4.994439 101 137 167
0.031532 0.581081 -4.994439 108 142 170
0.040541 0.581081 -4.994439 108 140 168
0.049550 0.581081 -4.994439 107 137 164
0.058559 0.581081 -4.994439 106 136 164
0.067568 0.581081 -4.994439 104 134 165
0.076577 0.581081 -4.994439 99 129 165
0.267640 0.627737 -5.395452 33 67 77
0.276867 0.626594 -5.385624 35 69 79
0.286408 0.626214 -5.382356 39 73 82
0.296117 0.626214 -5.382356 39 72 81
0.305825 0.626214 -5.382356 36 71 78
0.348466 0.633129 -5.441793 30 73 74
0.358282 0.633129 -5.441793 27 70 72
0.378378 0.633907 -5.448479 31 69 78
0.388206 0.633907 -5.448479 36 73 82
0.399507 0.636252 -5.468633 38 75 84
0.412679 0.641392 -5.512817 37 74 83
0.419235 0.636252 -5.468633 37 74 83
0.427518 0.633907 -5.448479 38 75 83
0.436274 0.632353 -5.435124 40 78 86
0.449383 0.637037 -5.475385 45 84 91
0.449334 0.597568 -5.136146 43 84 88
0.458068 0.596877 -5.130204 42 83 87
0.465975 0.595156 -5.115411 42 84 88
0.472748 0.592083 -5.088998 43 87 89
0.479452 0.589041 -5.062856 44 88 89
0.486917 0.587031 -5.045576 48 92 92
0.494892 0.585698 -5.034122 53 97 96
0.500000 0.581081 -4.994439 54 97 96
0.509009 0.581081 -4.994439 54 95 95
0.518018 0.581081 -4.994439 53 92 96
0.527027 0.581081 -4.994439 53 90 96
0.536036 0.581081 -4.994439 50 87 94
0.545045 0.581081 -4.994439 46 86 93
3.375415 3.428571 -29.468847 40 88 91
3.394737 3.394737 -29.178036 40 88 89
3.380645 3.329032 -28.613300 43 91 90
3.377778 3.276191 -28.159121 48 94 89
3.428571 3.276191 -28.159121 49 96 87
3.581699 3.372549 -28.987329 49 94 84
3.657895 3.394737 -29.178036 50 92 87
3.686275 3.372549 -28.987329 54 92 96
3.563863 3.214953 -27.632782 58 96 102
3.515152 3.127273 -26.879160 60 101 105
3.469027 3.044248 -26.165554 63 107 108
3.516224 3.044248 -26.165554 65 111 111
6.691450 3.836431 -32.974434 79 112 129
6.603636 3.752727 -32.254993 79 112 131
6.473498 3.646643 -31.343191 76 109 129
6.530035 3.646643 -31.343191 73 105 126
7.281250 4.031250 -34.648918 74 106 127
7.343750 4.031250 -34.648918 75 109 131
7.406250 4.031250 -34.648918 77 112 134
7.468750 4.031250 -34.648918 79 114 136
7.531250 4.031250 -34.648918 86 117 142
7.593750 4.031250 -34.648918 92 119 148
7.656250 4.031250 -34.648918 95 122 151
7.718750 4.031250 -34.648918 94 124 152
7.432836 3.850746 -33.097473 91 124 151
7.095407 3.646643 -31.343191 89 125 151
6.769231 3.451505 -29.665964 83 119 144
6.710526 3.394737 -29.178036 82 117 140
6.425000 3.225000 -27.719135 87 119 142
6.148368 3.062315 -26.320841 94 122 146
6.141177 3.035294 -26.088596 95 122 146
6.188235 3.035294 -26.088596 91 117 141
6.180758 3.008746 -25.860416 88 114 138
6.102857 2.948571 -25.343208 87 113 137
6.113636 2.931818 -25.199213 87 116 137
6.107042 2.907042 -24.986261 88 121 140
6.152112 2.907042 -24.986261 90 122 142
6.197183 2.907042 -24.986261 91 123 145
6.259887 2.915254 -25.056845 94 126 150
6.287324 2.907042 -24.986261 96 128 153
6.175824 2.835165 -24.368469 95 127 152
6.359550 2.898876 -24.916077 95 127 151
6.725664 3.044248 -26.165554 94 125 147
6.792900 3.053254 -26.242968 94 125 146
5.607656 2.468899 -21.220390 96 125 146
5.645933 2.468899 -21.220390 96 124 146
5.657143 2.457143 -21.119341 95 123 146
5.791768 2.498789 -21.477295 95 122 148
5.873171 2.517073 -21.634447 97 121 151
5.955774 2.535627 -21.793915 99 120 152
5.893720 2.492754 -21.425419 98 118 153
5.889688 2.474820 -21.271278 95 117 151
5.928058 2.474820 -21.271278 91 114 151
6.462337 2.680520 -23.039280 88 113 150
6.500000 2.580000 -22.175308 92 122 147
7.495702 2.957020 -25.415825 91 121 147
7.541547 2.957020 -25.415825 90 119 150
7.459155 2.907042 -24.986261 89 118 151
7.504225 2.907042 -24.986261 85 114 143
6.578125 2.015625 -17.324459 69 113 124
6.558139 2.000000 -17.190161 68 112 125
6.463878 1.961977 -16.863352 65 111 124
6.397004 1.932584 -16.610718 64 110 125
6.414953 1.928972 -16.579670 60 106 119
6.583804 1.943503 -16.704563 53 99 112
6.601504 1.939850 -16.673164 59 102 118
7.013916 2.051690 -17.634439 63 104 122
-3.917313 1.312662 -11.460107 110 56 58
-3.906736 1.316062 -11.489797 104 50 48
-3.856041 1.305913 -11.401186 102 48 43
-3.835476 1.305913 -11.401186 108 53 46
-3.163198 1.112815 -9.715360 100 38 44
-3.094828 1.094828 -9.558322 94 33 41
-3.077586 1.094828 -9.558322 88 29 38
-2.996798 1.084312 -9.466514 84 29 35
-2.960763 1.077412 -9.406281 73 24 28
-2.940678 1.076271 -9.396317 55 14 15
-2.914467 1.072862 -9.366550 47 17 16
-2.867294 1.061651 -9.268676 49 31 31
-2.838710 1.057232 -9.230097 57 47 51
-2.813278 1.053942 -9.201372 71 65 76
-2.790890 1.051760 -9.182322 84 83 105
-2.754368 1.044193 -9.116262 91 95 127
-2.757764 1.051760 -9.182322 99 98 139
-2.772775 1.063874 -9.288087 102 90 136
-2.770526 1.069474 -9.336971 87 64 114
-2.739267 1.063874 -9.288087 61 28 80
-2.708333 1.058333 -9.239712 56 23 71
-2.672182 1.050672 -9.172827 46 15 55
-2.655636 1.050672 -9.172827 46 20 48
-2.483607 1.040984 -9.088241 69 33 32
-2.432323 1.026263 -8.959721 69 34 28
-2.380100 1.010945 -8.825994 67 37 27
-2.359484 1.008937 -8.808464 66 38 26
-2.304688 0.992188 -8.662230 62 39 25
-0.051887 0.599057 -5.230025 79 114 144
-0.042056 0.593458 -5.181147 80 112 149
-0.032407 0.587963 -5.133173 76 108 146
-0.022936 0.582569 -5.086080 80 113 149
-0.013652 0.577929 -5.045576 76 111 143
-0.004538 0.576290 -5.031267 72 107 143
0.004527 0.574986 -5.019877 78 116 150
0.013514 0.572072 -4.994439 81 120 150
0.022523 0.572072 -4.994439 92 129 157
0.031532 0.572072 -4.994439 103 139 165
0.040541 0.572072 -4.994439 110 142 169
0.049550 0.572072 -4.994439 109 141 167
0.058559 0.572072 -4.994439 111 141 168
0.067568 0.572072 -4.994439 109 139 171
0.076577 0.572072 -4.994439 101 131 168
0.266990 0.616505 -5.382356 38 79 86
0.276699 0.616505 -5.382356 43 83 91
