ply
        format ascii 1.0
        element vertex 99992
        property float x
        property float y
        property float z
        property uchar red
        property uchar green
        property uchar blue
        end_header
1.336504 1.307967 -5.273557 118 148 174
1.343620 1.305638 -5.264168 119 151 176
1.345927 1.298701 -5.236200 119 150 175
1.353774 1.297170 -5.230025 118 150 174
1.363208 1.297170 -5.230025 116 147 171
1.371833 1.296405 -5.226943 115 144 166
1.384524 1.299468 -5.239293 115 143 165
1.395624 1.301005 -5.245490 113 143 164
1.404255 1.300236 -5.242390 108 140 159
1.410377 1.297170 -5.230025 103 138 156
1.417304 1.294879 -5.220790 100 138 154
1.418373 1.287302 -5.190242 99 137 153
1.412855 1.273885 -5.136146 97 132 151
1.416378 1.268743 -5.115411 98 129 149
1.424784 1.268012 -5.112463 98 129 147
1.422527 1.257862 -5.071540 99 131 146
1.422727 1.250000 -5.039843 98 132 147
1.428571 1.247166 -5.028414 95 130 147
1.427928 1.238739 -4.994439 92 126 148
1.436937 1.238739 -4.994439 92 124 151
1.445946 1.238739 -4.994439 92 122 152
1.468182 1.250000 -5.039843 90 119 149
1.975610 1.341463 -5.408612 119 147 173
1.974530 1.334142 -5.379092 123 151 175
1.963986 1.320528 -5.324203 126 153 178
1.979530 1.324503 -5.340230 127 153 180
1.983193 1.320528 -5.324203 127 153 180
1.983274 1.314217 -5.298759 124 151 178
1.992832 1.314217 -5.298759 118 146 172
2.187426 1.304864 -5.261046 100 125 146
2.196916 1.304864 -5.261046 101 125 146
2.642157 1.348039 -5.435124 94 115 136
2.616687 1.330109 -5.362831 91 109 128
2.602756 1.318155 -5.314633 92 105 123
2.590612 1.307190 -5.270424 89 100 116
2.600119 1.307190 -5.270424 84 100 114
2.589623 1.297170 -5.230025 78 100 110
2.574766 1.285047 -5.181147 75 99 105
2.541068 1.263642 -5.094844 69 94 96
2.542955 1.260023 -5.080254 68 93 92
2.543379 1.255708 -5.062856 66 92 89
2.542354 1.250711 -5.042708 68 93 89
2.547106 1.248581 -5.034122 69 95 91
2.554736 1.247873 -5.031267 67 90 87
-1.971631 1.290780 -5.242390 83 94 124
-1.957547 1.287736 -5.230025 92 109 141
-1.935560 1.279438 -5.196323 104 121 154
-1.920561 1.275701 -5.181147 118 129 164
-1.911215 1.275701 -5.181147 133 135 170
-1.900759 1.274956 -5.178122 136 125 161
-1.890315 1.274212 -5.175101 134 110 147
-1.861432 1.260970 -5.121318 140 106 143
-1.837343 1.250859 -5.080254 143 105 139
-1.817768 1.243736 -5.051323 135 95 124
-1.819015 1.250859 -5.080254 124 81 107
-1.877599 1.297683 -5.270424 121 71 96
-1.926471 1.338235 -5.435124 119 65 88
-1.902676 1.328467 -5.395452 118 61 84
-1.892944 1.328467 -5.395452 119 63 84
-1.883212 1.328467 -5.395452 120 65 84
-1.808737 1.289256 -5.236200 126 70 87
-1.795053 1.286219 -5.223865 124 70 85
-1.785630 1.286219 -5.223865 122 68 81
-1.775162 1.285462 -5.220790 124 72 84
-1.779359 1.295374 -5.261046 132 81 93
-1.769870 1.295374 -5.261046 135 84 99
-1.760380 1.295374 -5.261046 132 79 100
-1.748815 1.293839 -5.254812 128 74 97
-1.731132 1.287736 -5.230025 125 71 93
-1.718658 1.285462 -5.220790 122 68 88
-1.709241 1.285462 -5.220790 119 64 83
-1.702830 1.287736 -5.230025 122 66 85
-1.692398 1.286977 -5.226943 129 71 91
-1.682970 1.286977 -5.226943 127 66 89
-1.673542 1.286977 -5.226943 126 64 88
-1.596165 1.308568 -5.314633 124 62 73
-1.579952 1.303103 -5.292436 120 57 70
-1.568534 1.301549 -5.286128 119 56 69
-1.558999 1.301549 -5.286128 122 60 73
-1.545779 1.298454 -5.273557 126 64 79
-1.526285 1.290018 -5.239293 125 64 79
-1.513259 1.286977 -5.226943 118 60 74
-1.502945 1.286219 -5.223865 115 57 72
-1.493522 1.286219 -5.223865 119 61 78
-1.484099 1.286219 -5.223865 125 68 85
-1.436604 1.253012 -5.088998 128 73 89
-1.424156 1.250143 -5.077346 129 76 92
-1.458407 1.288496 -5.233111 129 78 93
-1.448968 1.288496 -5.233111 129 80 99
-1.425234 1.275701 -5.181147 125 77 97
-1.415888 1.275701 -5.181147 124 79 100
-1.413975 1.282443 -5.208528 130 85 107
-1.412042 1.289256 -5.236200 130 85 107
-1.400943 1.287736 -5.230025 130 81 102
-1.393152 1.289256 -5.236200 124 74 95
-1.379635 1.285462 -5.220790 123 71 92
-1.362200 1.277940 -5.190242 127 73 93
-1.350467 1.275701 -5.181147 128 73 96
-1.341122 1.275701 -5.181147 132 77 101
-1.331776 1.275701 -5.181147 133 78 104
-1.339877 1.339877 -5.441793 131 67 96
-1.328431 1.338235 -5.435124 128 62 92
-1.320245 1.339877 -5.441793 123 58 85
-1.310429 1.339877 -5.441793 124 57 85
-1.295052 1.334148 -5.418523 125 58 85
-1.282145 1.330896 -5.405316 135 69 93
-1.268530 1.326853 -5.388896 130 65 88
-1.258809 1.326853 -5.388896 127 63 84
-1.247573 1.325243 -5.382356 131 67 88
-1.237864 1.325243 -5.382356 133 71 93
-1.228155 1.325243 -5.382356 166 106 127
-1.222155 1.329276 -5.398736 155 96 119
-1.216117 1.333333 -5.415215 138 79 100
-1.107477 1.275701 -5.181147 125 63 83
-1.096210 1.273469 -5.172083 124 64 85
-1.085614 1.271986 -5.166059 127 71 93
-1.075044 1.270506 -5.160048 133 78 101
-1.066977 1.271986 -5.166059 129 78 102
-1.062610 1.277940 -5.190242 126 77 102
-1.053864 1.278689 -5.193281 124 75 103
-1.043885 1.277940 -5.190242 122 72 101
-1.033918 1.277193 -5.187206 122 73 101
-1.052885 1.312500 -5.330603 121 71 99
-1.045153 1.314871 -5.340230 118 67 94
-1.040532 1.321234 -5.366076 122 70 94
-1.032102 1.322835 -5.372576 126 72 93
-1.021792 1.322034 -5.369324 126 71 91
-1.008444 1.317250 -5.349893 125 67 88
-0.977568 1.289256 -5.236200 126 65 87
-0.966981 1.287736 -5.230025 125 62 83
-0.956983 1.286977 -5.226943 124 59 80
-0.947555 1.286977 -5.226943 122 58 77
-0.938126 1.286977 -5.226943 128 65 84
-0.928151 1.286219 -5.223865 134 74 93
-0.918728 1.286219 -5.223865 130 75 94
-0.916321 1.296142 -5.264168 125 74 94
-0.906825 1.296142 -5.264168 118 71 93
-0.894675 1.292308 -5.248593 109 67 90
-0.884684 1.291543 -5.245490 113 74 98
-0.874188 1.290018 -5.239293 119 82 107
-0.864737 1.290018 -5.239293 121 82 110
-0.851765 1.284706 -5.217720 119 83 111
-0.837917 1.277940 -5.190242 108 81 112
-0.826138 1.274212 -5.175101 92 77 111
-0.816803 1.274212 -5.175101 85 83 119
-0.830234 1.310138 -5.321010 88 97 135
-0.822115 1.312500 -5.330603 100 115 153
-0.810066 1.308568 -5.314633 116 131 168
-0.800479 1.308568 -5.314633 116 124 160
-0.785714 1.300000 -5.279835 124 122 154
-0.775268 1.298454 -5.273557 146 130 158
-0.764392 1.296142 -5.264168 150 123 146
-0.754448 1.295374 -5.261046 141 106 124
-0.743635 1.293073 -5.251701 142 106 120
-0.733728 1.292308 -5.248593 153 120 129
-0.723404 1.290780 -5.242390 153 125 130
-0.712684 1.288496 -5.233111 142 116 114
-0.699531 1.281690 -5.205471 141 115 106
-0.686916 1.275701 -5.181147 148 120 108
-0.676385 1.273469 -5.172083 147 116 104
-0.664344 1.268293 -5.151059 143 111 96
-0.653913 1.266087 -5.142100 141 107 89
-0.644264 1.265353 -5.139121 138 103 82
-0.635362 1.266087 -5.142100 136 102 79
-0.626087 1.266087 -5.142100 139 108 81
-0.617169 1.266821 -5.145083 139 111 84
-0.608241 1.267557 -5.148069 140 116 88
-0.603862 1.277940 -5.190242 146 125 99
-0.594500 1.277940 -5.190242 149 129 108
-0.585823 1.279438 -5.196323 151 132 118
-0.575775 1.277940 -5.190242 149 131 120
-0.565090 1.274956 -5.178122 136 117 109
-0.553167 1.269030 -5.154052 125 102 93
-0.543239 1.267557 -5.148069 129 102 88
-0.533643 1.266821 -5.145083 129 101 83
-0.524362 1.266821 -5.145083 134 104 85
-0.514783 1.266087 -5.142100 144 113 90
-0.503174 1.260242 -5.118363 148 118 90
-0.492237 1.255894 -5.100703 154 123 94
-0.483036 1.255894 -5.100703 150 120 91
-0.471936 1.250859 -5.080254 147 117 89
-0.464368 1.255172 -5.097772 147 117 91
-0.453868 1.251576 -5.083165 145 117 93
-0.444699 1.251576 -5.083165 141 116 92
-0.434783 1.249428 -5.074441 144 120 95
-0.426361 1.251576 -5.083165 151 126 102
-0.423749 1.271246 -5.163052 151 127 101
-0.416131 1.276447 -5.184175 146 123 96
-0.406780 1.276447 -5.184175 144 124 96
-0.403321 1.295374 -5.261046 140 124 94
-0.394534 1.297683 -5.270424 141 126 96
-0.385027 1.297683 -5.270424 143 129 99
-0.375743 1.298454 -5.273557 144 130 105
-0.367542 1.303103 -5.292436 141 126 107
-0.357995 1.303103 -5.292436 141 125 110
-0.348241 1.302326 -5.289280 144 127 116
-0.341346 1.312500 -5.330603 143 126 114
-0.333535 1.319637 -5.359591 142 124 109
-0.323086 1.316456 -5.346669 145 129 113
-0.312688 1.313289 -5.333808 149 133 119
-0.303067 1.313289 -5.333808 151 139 127
-0.294686 1.318841 -5.356355 151 141 131
-0.286234 1.324439 -5.379092 143 136 125
-0.236858 1.319637 -5.359591 135 137 133
-0.226370 1.314871 -5.340230 126 128 126
-0.216476 1.313289 -5.333808 121 122 123
-0.207104 1.314871 -5.340230 126 126 125
-0.198307 1.320435 -5.362831 134 132 129
-0.188748 1.321234 -5.366076 137 132 125
-0.179068 1.321234 -5.366076 134 126 114
-0.169389 1.321234 -5.366076 139 126 112
-0.160389 1.326853 -5.388896 146 130 113
-0.150668 1.326853 -5.388896 141 124 107
-0.140948 1.326853 -5.388896 137 118 103
-0.130830 1.322835 -5.372576 139 117 105
-0.119904 1.309353 -5.317820 137 114 105
-0.109654 1.301549 -5.286128 132 107 101
-0.042985 1.303881 -5.295596 149 118 108
-0.033314 1.299227 -5.276694 145 112 104
-0.023655 1.291543 -5.245490 137 99 97
-0.014176 1.290018 -5.239293 135 96 95
-0.004709 1.285462 -5.220790 132 92 90
0.014193 1.291543 -5.245490 128 88 83
0.041002 1.243736 -5.051323 129 96 84
0.051674 1.282443 -5.208528 118 85 73
0.061249 1.286219 -5.223865 113 80 69
0.070588 1.284706 -5.217720 125 96 83
0.079953 1.283951 -5.214652 133 110 96
0.088218 1.267557 -5.148069 135 117 104
0.097279 1.264621 -5.136146 132 119 105
0.106543 1.264621 -5.136146 129 119 104
0.116144 1.268293 -5.151059 128 119 103
0.126390 1.277940 -5.190242 124 114 101
0.136390 1.283951 -5.214652 132 120 107
0.145968 1.285462 -5.220790 137 120 109
0.155386 1.285462 -5.220790 134 115 105
0.165094 1.287736 -5.230025 134 110 103
0.175459 1.294606 -5.257927 141 114 109
0.185383 1.297683 -5.270424 140 112 109
0.194659 1.296142 -5.264168 133 104 101
0.204762 1.300000 -5.279835 130 99 96
0.213777 1.296912 -5.267294 138 104 101
0.223810 1.300000 -5.279835 138 103 100
0.232779 1.296912 -5.267294 127 93 90
0.242136 1.296142 -5.264168 120 85 83
0.251334 1.294606 -5.257927 123 88 87
0.260047 1.290780 -5.242390 122 88 85
0.270784 1.296912 -5.267294 121 87 85
0.278302 1.287736 -5.230025 121 88 89
0.290303 1.299227 -5.276694 113 84 90
0.299465 1.297683 -5.270424 101 82 97
0.309340 1.299227 -5.276694 105 97 123
0.313084 1.275701 -5.181147 113 117 152
0.320186 1.266821 -5.145083 106 120 159
0.327566 1.259516 -5.115411 93 113 151
0.336599 1.258790 -5.112463 84 108 143
0.345821 1.258790 -5.112463 82 112 144
0.356895 1.265353 -5.139121 91 122 151
0.368943 1.274956 -5.178122 107 129 157
0.378947 1.277193 -5.187206 121 125 155
0.388531 1.277940 -5.190242 115 100 135
0.397894 1.277940 -5.190242 110 79 118
0.407256 1.277940 -5.190242 115 72 110
0.415888 1.275701 -5.181147 116 65 102
0.424985 1.274956 -5.178122 119 65 99
0.434326 1.274956 -5.178122 116 63 94
0.443666 1.274956 -5.178122 111 61 91
0.452214 1.272727 -5.169069 111 62 91
0.462347 1.274956 -5.178122 109 58 88
0.471137 1.273469 -5.172083 104 49 78
0.481027 1.274956 -5.178122 100 42 65
0.489796 1.273469 -5.172083 103 43 59
0.499708 1.274956 -5.178122 105 45 59
0.509346 1.275701 -5.181147 102 44 55
0.518692 1.275701 -5.181147 102 42 55
0.528037 1.275701 -5.181147 106 45 62
0.537069 1.274956 -5.178122 105 46 66
0.536697 1.252294 -5.086080 103 46 69
0.543689 1.247287 -5.065747 101 49 74
0.551253 1.243736 -5.051323 101 51 80
0.611792 1.274956 -5.178122 97 53 85
0.615385 1.263158 -5.130204 96 53 82
0.624638 1.263158 -5.130204 95 51 79
0.629523 1.254452 -5.094844 96 48 75
0.637249 1.251576 -5.083165 99 44 73
0.646418 1.251576 -5.083165 97 35 66
0.686515 1.274956 -5.178122 94 32 56
0.693023 1.269767 -5.157048 98 35 57
0.697863 1.261698 -5.124277 102 39 59
0.701835 1.252294 -5.086080 102 40 57
0.711009 1.252294 -5.086080 105 43 59
0.720183 1.252294 -5.086080 107 45 60
0.730195 1.253731 -5.091919 103 41 56
0.742363 1.258790 -5.112463 99 38 53
0.752887 1.260970 -5.121318 102 40 55
0.762125 1.260970 -5.121318 106 43 59
0.773148 1.263889 -5.133173 105 43 58
0.782407 1.263889 -5.133173 103 39 56
0.791667 1.263889 -5.133173 100 38 56
0.794945 1.254452 -5.094844 101 38 59
0.803213 1.253012 -5.088998 102 39 62
0.817080 1.260242 -5.118363 102 42 64
0.829184 1.264621 -5.136146 105 45 66
0.838934 1.265353 -5.139121 106 47 71
0.848696 1.266087 -5.142100 100 45 68
0.857971 1.266087 -5.142100 93 41 63
0.865741 1.263889 -5.133173 89 40 64
0.873988 1.262428 -5.127239 88 43 68
0.896396 1.229730 -4.994439 101 60 93
0.905405 1.229730 -4.994439 96 54 88
0.976636 1.275701 -5.181147 91 51 82
0.984831 1.274212 -5.175101 94 54 82
1.023741 1.264621 -5.136146 101 51 79
1.030023 1.260970 -5.121318 96 43 72
1.039261 1.260970 -5.121318 95 39 70
1.049105 1.261698 -5.124277 99 42 73
1.060185 1.263889 -5.133173 100 44 75
1.071926 1.266821 -5.145083 98 42 74
1.109049 1.266821 -5.145083 98 50 84
1.117034 1.265353 -5.139121 99 50 82
1.125651 1.264621 -5.136146 99 49 78
1.132948 1.262428 -5.127239 96 47 73
1.142197 1.262428 -5.127239 95 48 71
1.154114 1.265353 -5.139121 90 49 70
1.166086 1.268293 -5.151059 77 50 71
1.177429 1.270506 -5.160048 111 104 131
1.181924 1.265353 -5.139121 131 141 170
1.189815 1.263889 -5.133173 132 149 179
1.199074 1.263889 -5.133173 128 151 180
1.211137 1.266821 -5.145083 125 149 179
1.234682 1.262428 -5.127239 126 150 176
1.245370 1.263889 -5.133173 127 152 176
1.251732 1.260970 -5.121318 128 152 176
1.270506 1.270506 -5.160048 132 154 178
1.282799 1.273469 -5.172083 133 155 179
1.292882 1.274212 -5.175101 130 151 177
1.304500 1.276447 -5.184175 129 150 177
1.321576 1.283951 -5.214652 129 151 178
1.338061 1.290780 -5.242390 130 154 180
1.347518 1.290780 -5.242390 132 157 181
1.353774 1.287736 -5.230025 133 159 182
1.363208 1.287736 -5.230025 134 158 181
1.373451 1.288496 -5.233111 132 157 178
1.389449 1.294606 -5.257927 131 157 176
1.398933 1.294606 -5.257927 130 157 176
1.405086 1.291543 -5.245490 126 154 172
1.410377 1.287736 -5.230025 120 150 168
1.419811 1.287736 -5.230025 116 147 165
1.420868 1.280188 -5.199369 115 147 166
1.415313 1.266821 -5.145083 116 145 167
1.415562 1.258790 -5.112463 115 142 164
1.418244 1.253012 -5.088998 111 137 158
1.417664 1.244444 -5.054201 107 135 153
1.421112 1.239501 -5.034122 103 133 151
1.427762 1.237394 -5.025566 98 129 148
1.427928 1.229730 -4.994439 98 127 151
1.436937 1.229730 -4.994439 101 127 156
1.445946 1.229730 -4.994439 103 127 159
1.454955 1.229730 -4.994439 105 127 159
1.977914 1.339877 -5.441793 129 152 181
1.967213 1.326047 -5.385624 133 154 183
1.974530 1.324439 -5.379092 133 154 183
1.969898 1.314871 -5.340230 134 155 184
1.975962 1.312500 -5.330603 136 157 188
1.977259 1.307002 -5.308272 139 161 191
1.973841 1.298454 -5.273557 138 163 191
1.992832 1.304659 -5.298759 135 162 188
2.170213 1.290780 -5.242390 117 143 165
2.175811 1.288496 -5.233111 116 141 163
2.186541 1.289256 -5.236200 117 139 163
2.206406 1.295374 -5.261046 120 141 165
2.487515 1.298454 -5.273557 122 140 162
2.651685 1.363296 -5.536906 115 133 151
2.656698 1.360748 -5.526556 116 134 157
2.653441 1.353999 -5.499146 111 133 157
2.632353 1.338235 -5.435124 107 135 159
2.614918 1.324439 -5.379092 104 131 155
2.593169 1.308568 -5.314633 100 124 146
2.581105 1.297683 -5.270424 100 119 141
2.570755 1.287736 -5.230025 103 119 140
2.574118 1.284706 -5.217720 95 116 134
2.554974 1.270506 -5.160048 90 119 133
2.536248 1.256617 -5.103638 90 122 132
2.535244 1.251576 -5.083165 89 120 127
2.534247 1.246575 -5.062856 89 119 125
2.534698 1.242321 -5.045576 88 118 124
2.538025 1.239501 -5.034122 88 118 122
2.545661 1.238798 -5.031267 90 121 124
2.551841 1.237394 -5.025566 88 119 124
2.556561 1.235294 -5.017038 93 122 128
-1.969303 1.279811 -5.236200 86 96 121
-1.955241 1.276796 -5.223865 93 111 137
-1.933294 1.268578 -5.190242 104 122 150
-1.920561 1.266355 -5.181147 114 125 155
-1.911215 1.266355 -5.181147 126 123 156
-1.901869 1.266355 -5.181147 135 115 150
-1.890315 1.264877 -5.175101 139 104 140
-1.874419 1.260465 -5.157048 142 95 130
-1.852194 1.251732 -5.121318 137 87 119
-1.842956 1.251732 -5.121318 130 78 105
-1.872642 1.278302 -5.230025 123 66 89
-1.867612 1.281324 -5.242390 113 54 73
-1.865875 1.286647 -5.264168 112 50 67
-1.856380 1.286647 -5.264168 117 51 68
-1.838157 1.280567 -5.239293 116 51 67
-1.819036 1.273795 -5.211588 115 51 66
-1.808573 1.273048 -5.208528 117 54 66
-1.802353 1.275294 -5.217720 119 56 66
-1.795053 1.276796 -5.223865 119 56 65
-1.785630 1.276796 -5.223865 121 58 66
-1.776207 1.276796 -5.223865 125 66 73
-1.777251 1.284360 -5.254812 135 78 86
-1.769870 1.285884 -5.261046 138 80 91
-1.760380 1.285884 -5.261046 132 71 86
-1.749852 1.285122 -5.257927 128 67 83
-1.731132 1.278302 -5.230025 125 65 80
-1.719670 1.276796 -5.223865 124 63 77
-1.709241 1.276045 -5.220790 121 60 73
-1.700824 1.276796 -5.223865 120 58 71
-1.690406 1.276045 -5.220790 123 58 72
-1.680989 1.276045 -5.220790 122 56 70
-1.671571 1.276045 -5.220790 118 51 68
-1.596165 1.298981 -5.314633 132 61 68
-1.585629 1.298204 -5.311451 130 59 67
-1.573222 1.295876 -5.301927 128 58 66
-1.560859 1.293556 -5.292436 130 61 68
-1.549464 1.292014 -5.286128 134 67 75
-1.528994 1.282840 -5.248593 137 70 79
-1.514151 1.278302 -5.230025 134 69 78
-1.503830 1.277549 -5.226943 132 66 76
-1.494402 1.277549 -5.226943 130 67 76
-1.484099 1.276796 -5.223865 131 68 79
-1.440737 1.247411 -5.103638 131 69 79
-1.430707 1.246693 -5.100703 132 73 80
-1.458407 1.279056 -5.233111 128 71 79
-1.448968 1.279056 -5.233111 127 71 82
-1.431085 1.271554 -5.202418 123 69 82
-1.420035 1.270064 -5.196323 126 74 87
-1.413975 1.273048 -5.208528 135 83 96
-1.410377 1.278302 -5.230025 137 84 100
-1.400943 1.278302 -5.230025 134 80 94
-1.390689 1.277549 -5.226943 132 76 88
-1.376395 1.273048 -5.208528 134 76 87
-1.359813 1.266355 -5.181147 137 77 86
-1.351257 1.267095 -5.184175 132 70 81
-1.341122 1.266355 -5.181147 130 68 81
-1.331776 1.266355 -5.181147 129 67 81
-1.322430 1.266355 -5.181147 122 59 76
-1.332520 1.322758 -5.411911 112 39 61
-1.320341 1.320341 -5.402024 115 40 62
-1.310597 1.320341 -5.402024 113 36 57
-1.301645 1.321146 -5.405316 113 34 53
-1.291108 1.320341 -5.402024 114 36 51
-1.278250 1.317132 -5.388896 115 37 52
-1.266222 1.314736 -5.379092 118 41 54
-1.252721 1.310762 -5.362831 132 55 70
-1.240797 1.308389 -5.353122 133 58 73
-1.235615 1.313143 -5.372576 127 54 70
-1.225924 1.313143 -5.372576 133 60 76
-1.221411 1.318735 -5.395452 133 61 75
-1.216117 1.323565 -5.415215 134 64 75
-1.087600 1.233220 -5.045576 139 66 76
-1.097858 1.255356 -5.136146 136 63 74
-1.093023 1.260465 -5.157048 132 64 74
-1.081834 1.258271 -5.148069 136 70 81
-1.070684 1.256083 -5.139121 142 78 93
-1.060185 1.254630 -5.133173 143 81 96
-1.059510 1.264877 -5.175101 141 81 100
-1.053248 1.268578 -5.190242 141 82 103
-1.043885 1.268578 -5.190242 143 84 106
-1.069570 1.311555 -5.366076 142 83 104
-1.059891 1.311555 -5.366076 135 76 98
-1.051484 1.313143 -5.372576 133 71 92
-1.041162 1.312349 -5.369324 136 71 91
-1.032727 1.313939 -5.375832 138 71 90
-1.021792 1.312349 -5.369324 138 69 87
-1.009662 1.309179 -5.356355 138 66 83
-0.977568 1.279811 -5.236200 138 64 80
-0.966411 1.277549 -5.226943 136 61 74
-0.956983 1.277549 -5.226943 135 58 70
-0.947555 1.277549 -5.226943 135 58 68
-0.937574 1.276796 -5.223865 134 60 68
-0.927604 1.276045 -5.220790 135 65 72
-0.918187 1.276045 -5.220790 132 67 75
-0.923445 1.296651 -5.305098 133 73 84
-0.913876 1.296651 -5.305098 144 90 102
-0.895735 1.284360 -5.254812 154 105 119
-0.885207 1.282840 -5.248593 154 109 125
-0.874188 1.280567 -5.239293 146 102 120
-0.863717 1.279056 -5.233111 144 98 117
-0.848272 1.270064 -5.196323 139 95 115
-0.836937 1.267095 -5.184175 117 84 107
-0.825175 1.263403 -5.169069 97 76 103
-0.815376 1.262667 -5.166059 90 84 115
-0.826762 1.295102 -5.298759 89 95 129
-0.818671 1.297427 -5.308272 96 108 143
-0.807646 1.295102 -5.298759 109 123 157
-0.795238 1.290476 -5.279835 116 125 156
-0.785247 1.289708 -5.276694 118 117 145
-0.773887 1.286647 -5.264168 128 114 136
-0.764392 1.286647 -5.264168 138 111 127
-0.754896 1.286647 -5.264168 143 107 116
-0.745401 1.286647 -5.264168 142 102 106
-0.734162 1.283600 -5.251701 140 104 101
-0.724260 1.282840 -5.248593 139 107 99
-0.713948 1.281324 -5.242390 132 103 89
-0.703245 1.279056 -5.233111 129 102 82
-0.686916 1.266355 -5.181147 133 105 82
-0.676779 1.264877 -5.175101 135 104 78
-0.665116 1.260465 -5.157048 136 105 75
-0.654672 1.258271 -5.148069 140 107 74
-0.645012 1.257541 -5.145083 140 107 70
-0.636100 1.258271 -5.148069 139 107 66
-0.626814 1.258271 -5.148069 141 112 68
-0.617528 1.258271 -5.148069 138 112 67
-0.619020 1.280567 -5.239293 137 113 70
-0.607416 1.276045 -5.220790 140 119 80
-0.596244 1.272300 -5.205471 144 123 91
-0.585823 1.270064 -5.196323 148 127 102
-0.575775 1.268578 -5.190242 145 124 105
-0.565421 1.266355 -5.181147 134 111 97
-0.554133 1.261932 -5.163052 121 97 81
-0.544820 1.261932 -5.163052 122 95 72
-0.533643 1.257541 -5.145083 127 99 71
-0.524362 1.257541 -5.145083 134 104 73
-0.515081 1.257541 -5.145083 138 108 72
-0.522156 1.298204 -5.311451 139 107 68
-0.512882 1.298981 -5.314633 147 115 75
-0.503295 1.298981 -5.314633 151 120 81
-0.493709 1.298981 -5.314633 154 122 83
-0.465706 1.249568 -5.112463 149 118 81
-0.454911 1.245261 -5.094844 147 117 82
-0.445721 1.245261 -5.094844 146 118 85
-0.435530 1.242407 -5.083165 150 123 90
-0.429809 1.252455 -5.124277 153 125 90
-0.425482 1.267095 -5.184175 147 121 83
-0.417106 1.270064 -5.196323 143 117 77
-0.408931 1.273795 -5.211588 145 122 81
-0.404762 1.290476 -5.279835 143 124 83
-0.395238 1.290476 -5.279835 144 126 86
-0.385027 1.288176 -5.270424 145 128 88
-0.375520 1.288176 -5.270424 146 131 93
-0.369083 1.298981 -5.314633 144 127 95
-0.359712 1.299760 -5.317820 145 128 99
-0.349701 1.298204 -5.311451 148 130 104
-0.340528 1.299760 -5.317820 142 122 96
-0.331532 1.302102 -5.327401 140 121 93
-0.322115 1.302885 -5.330603 140 122 91
-0.312500 1.302885 -5.330603 141 124 95
-0.302885 1.302885 -5.330603 143 127 101
-0.293446 1.303668 -5.333808 140 128 103
-0.285541 1.311555 -5.366076 133 124 98
-0.198667 1.313143 -5.372576 128 121 104
-0.188862 1.312349 -5.369324 127 119 99
-0.179068 1.311555 -5.366076 133 121 96
-0.169389 1.311555 -5.366076 133 118 88
-0.119190 1.292014 -5.286128 139 115 90
-0.109589 1.291245 -5.282980 130 104 82
-0.060325 1.257541 -5.145083 149 118 96
-0.050985 1.256083 -5.139121 149 117 95
-0.042578 1.282082 -5.245490 149 112 93
-0.033077 1.280567 -5.239293 148 110 92
-0.023502 1.273795 -5.211588 148 106 90
-0.014019 1.266355 -5.181147 144 101 84
-0.004673 1.266355 -5.181147 134 88 72
0.004717 1.278302 -5.230025 124 79 60
0.014193 1.282082 -5.245490 120 78 56
0.023655 1.282082 -5.245490 128 86 61
0.031891 1.234624 -5.051323 136 96 69
0.040909 1.231818 -5.039843 131 94 65
0.050000 1.231818 -5.039843 119 82 54
0.070547 1.274544 -5.214652 126 95 68
0.079347 1.264877 -5.175101 133 106 80
0.088167 1.257541 -5.145083 136 115 89
0.097222 1.254630 -5.133173 139 120 95
0.106543 1.255356 -5.136146 138 122 97
0.116550 1.263403 -5.169069 136 121 95
0.127059 1.275294 -5.217720 133 117 93
0.136712 1.277549 -5.226943 136 119 95
0.146226 1.278302 -5.230025 138 117 93
0.155660 1.278302 -5.230025 137 113 90
0.165387 1.280567 -5.239293 139 111 92
0.175459 1.285122 -5.257927 144 114 95
0.185053 1.285884 -5.261046 142 111 93
0.194543 1.285884 -5.261046 139 107 89
0.204640 1.289708 -5.276694 137 100 82
0.213904 1.288176 -5.270424 142 101 84
0.223810 1.290476 -5.279835 134 92 76
0.232917 1.288176 -5.270424 124 82 65
0.242280 1.287411 -5.267294 124 82 68
0.251483 1.285884 -5.261046 128 87 75
0.260047 1.281324 -5.242390 129 89 78
0.270784 1.287411 -5.267294 126 86 77
0.278795 1.280567 -5.239293 122 84 77
0.289786 1.287411 -5.267294 117 84 81
0.297696 1.280567 -5.239293 111 89 95
0.308605 1.286647 -5.264168 117 108 125
0.313634 1.268578 -5.190242 113 118 144
0.321866 1.264140 -5.172083 92 110 141
0.329466 1.257541 -5.145083 78 103 134
0.338355 1.256083 -5.139121 76 105 135
0.347625 1.256083 -5.139121 82 112 141
0.358348 1.261198 -5.160048 93 121 149
0.368943 1.265616 -5.178122 110 128 156
0.379169 1.268578 -5.190242 123 123 153
0.388531 1.268578 -5.190242 125 107 140
0.398126 1.269321 -5.193281 129 94 129
0.407733 1.270064 -5.196323 127 78 114
0.416618 1.268578 -5.190242 120 62 97
0.425234 1.266355 -5.181147 120 58 90
0.434326 1.265616 -5.178122 117 54 82
0.443666 1.265616 -5.178122 116 52 79
0.451951 1.262667 -5.166059 109 46 72
0.461270 1.262667 -5.166059 99 36 60
0.470862 1.263403 -5.169069 93 28 49
0.480466 1.264140 -5.172083 99 30 45
0.489796 1.264140 -5.172083 109 39 46
0.499125 1.264140 -5.172083 112 45 47
0.509346 1.266355 -5.181147 108 44 45
0.518692 1.266355 -5.181147 113 48 51
0.519839 1.246693 -5.100703 116 49 57
0.526015 1.239565 -5.071540 112 46 58
0.533030 1.234624 -5.051323 110 47 63
0.541217 1.232518 -5.042708 117 57 76
0.550000 1.231818 -5.039843 120 63 86
0.559409 1.232518 -5.042708 118 61 87
0.570125 1.236032 -5.057083 116 58 86
0.582235 1.242407 -5.083165 108 52 81
0.591404 1.242407 -5.083165 102 47 76
0.601607 1.244547 -5.091919 99 46 74
0.611143 1.245261 -5.094844 101 48 75
0.620333 1.245261 -5.094844 100 46 72
0.628440 1.243119 -5.086080 98 40 66
0.635792 1.239565 -5.071540 102 38 63
0.643468 1.236737 -5.059968 105 36 58
0.659366 1.249568 -5.112463 106 34 54
0.686515 1.265616 -5.178122 106 34 49
0.689815 1.254630 -5.133173 108 37 48
0.693854 1.245261 -5.094844 110 38 48
0.700229 1.240275 -5.074441 109 38 45
0.709382 1.240275 -5.074441 112 39 45
0.720183 1.243119 -5.086080 109 36 43
0.729776 1.243832 -5.088998 104 32 36
0.740656 1.246693 -5.100703 101 29 35
0.751585 1.249568 -5.112463 104 32 36
0.760807 1.249568 -5.112463 111 36 41
0.770917 1.251010 -5.118363 109 37 40
0.777012 1.245977 -5.097772 108 33 38
0.786207 1.245977 -5.097772 108 32 40
0.794945 1.245261 -5.094844 111 33 47
0.803213 1.243832 -5.088998 114 36 52
0.817080 1.251010 -5.118363 114 37 53
0.829184 1.255356 -5.136146 113 39 54
0.838448 1.255356 -5.136146 112 40 56
0.847713 1.255356 -5.136146 108 38 55
0.856481 1.254630 -5.133173 104 37 55
0.862745 1.250288 -5.115411 101 40 57
0.869965 1.247411 -5.103638 112 55 73
0.875645 1.242407 -5.083165 112 57 77
0.896396 1.220721 -4.994439 108 58 84
0.905405 1.220721 -4.994439 105 52 82
0.975496 1.264877 -5.175101 103 51 73
0.965675 1.240275 -5.074441 104 52 74
0.974271 1.239565 -5.071540 99 47 68
1.019020 1.249568 -5.112463 106 44 64
1.025287 1.245977 -5.097772 105 38 60
1.037464 1.249568 -5.112463 106 36 59
1.046686 1.249568 -5.112463 110 40 64
1.058348 1.252455 -5.124277 114 41 67
1.067591 1.252455 -5.124277 109 39 64
1.076834 1.252455 -5.124277 108 39 66
1.087334 1.253904 -5.130204 110 45 71
1.098494 1.256083 -5.139121 109 46 74
1.107122 1.255356 -5.136146 104 44 71
1.115741 1.254630 -5.133173 105 43 68
1.123699 1.253179 -5.127239 104 41 62
1.131640 1.251732 -5.121318 102 40 57
1.140878 1.251732 -5.121318 101 42 55
1.154114 1.256083 -5.139121 96 44 55
1.168121 1.261198 -5.160048 85 44 59
1.177429 1.261198 -5.160048 116 95 121
1.183981 1.258271 -5.148069 145 139 174
1.190504 1.255356 -5.136146 148 149 187
1.201856 1.257541 -5.145083 143 150 186
1.216075 1.262667 -5.166059 141 151 185
1.229690 1.267095 -5.184175 139 151 181
1.239041 1.267095 -5.184175 141 151 180
1.244030 1.262667 -5.166059 143 151 180
1.246091 1.255356 -5.136146 148 157 185
1.248129 1.248129 -5.106576 146 156 183
1.264621 1.255356 -5.136146 146 156 183
1.282799 1.264140 -5.172083 147 156 183
1.294392 1.266355 -5.181147 146 155 184
1.305263 1.267836 -5.187206 148 156 186
1.321576 1.274544 -5.214652 148 157 186
1.346017 1.288942 -5.273557 147 159 186
1.347518 1.281324 -5.242390 146 159 186
1.353774 1.278302 -5.230025 145 159 185
1.363208 1.278302 -5.230025 144 159 185
1.372642 1.278302 -5.230025 144 158 183
1.384524 1.280567 -5.239293 143 158 182
1.398933 1.285122 -5.257927 143 160 182
1.404255 1.281324 -5.242390 142 162 183
1.406232 1.274544 -5.214652 141 161 183
1.415638 1.274544 -5.214652 141 161 184
1.416715 1.267095 -5.184175 140 158 184
1.416957 1.259001 -5.151059 141 157 183
1.422943 1.256083 -5.139121 140 156 182
1.431384 1.255356 -5.136146 134 150 174
1.424156 1.240985 -5.077346 128 144 166
1.419501 1.229025 -5.028414 120 140 159
1.418919 1.220721 -4.994439 112 134 155
1.427928 1.220721 -4.994439 108 129 155
1.436937 1.220721 -4.994439 100 120 150
1.445946 1.220721 -4.994439 99 115 148
1.454955 1.220721 -4.994439 112 125 158
1.968098 1.330061 -5.441793 148 154 186
1.965854 1.321951 -5.408612 153 159 188
1.966019 1.315534 -5.382356 152 157 187
1.973333 1.313939 -5.375832 150 156 186
1.969898 1.305238 -5.340230 152 158 190
1.967684 1.297427 -5.308272 154 160 192
1.966667 1.290476 -5.279835 155 163 194
1.967991 1.285122 -5.257927 154 164 195
1.977475 1.285122 -5.257927 152 164 193
2.160000 1.275294 -5.217720 140 152 177
2.169412 1.275294 -5.217720 142 151 178
2.185251 1.279056 -5.233111 143 152 180
2.198581 1.281324 -5.242390 146 154 182
2.383495 1.315534 -5.382356 146 157 184
2.390303 1.313939 -5.375832 145 161 182
2.400000 1.313939 -5.375832 141 161 178
2.485391 1.292785 -5.289280 142 153 175
2.487515 1.288942 -5.273557 142 152 176
2.500000 1.290476 -5.279835 137 150 171
2.631710 1.353308 -5.536906 138 151 171
2.643348 1.354154 -5.540364 138 151 170
2.648379 1.351621 -5.530002 137 149 171
2.655044 1.349938 -5.523115 138 151 177
2.653441 1.344079 -5.499146 133 149 176
2.632353 1.328431 -5.435124 124 147 175
2.614918 1.314736 -5.379092 120 144 172
2.602525 1.303668 -5.333808 119 140 167
2.593433 1.294328 -5.295596 116 135 161
2.586002 1.285884 -5.261046 113 130 156
2.574118 1.275294 -5.217720 106 127 151
2.559441 1.263403 -5.169069 105 131 152
2.547977 1.253179 -5.127239 110 137 155
2.536697 1.243119 -5.086080 110 135 152
2.541500 1.240985 -5.077346 103 128 144
2.541928 1.236737 -5.059968 101 127 142
2.543800 1.233220 -5.045576 100 125 139
2.547106 1.230420 -5.034122 103 126 139
2.550396 1.227633 -5.022720 105 127 141
2.556561 1.226244 -5.017038 107 126 143
2.568516 1.227633 -5.022720 106 123 143
-1.969303 1.270366 -5.236200 90 102 119
-1.955241 1.267373 -5.223865 96 115 135
-1.933294 1.259216 -5.190242 105 125 148
-1.922807 1.258479 -5.187206 114 127 152
-1.913450 1.258479 -5.187206 120 115 143
-1.901869 1.257009 -5.181147 124 99 129
-1.892523 1.257009 -5.181147 128 88 118
-1.877694 1.253349 -5.166059 127 77 104
-1.862950 1.249710 -5.151059 120 64 88
-1.853659 1.249710 -5.151059 114 56 76
-1.874852 1.270366 -5.236200 110 50 66
-1.867612 1.271868 -5.242390 102 40 53
-1.858156 1.271868 -5.242390 104 39 50
-1.847608 1.271116 -5.239293 110 42 52
-1.828437 1.264395 -5.211588 110 44 52
-1.813708 1.260691 -5.196323 112 47 55
-1.802224 1.259216 -5.190242 115 50 57
-1.797067 1.262170 -5.202418 113 48 54
-1.792941 1.265882 -5.217720 109 46 50
-1.786682 1.268120 -5.226943 111 50 52
-1.786730 1.274881 -5.254812 119 61 63
-1.783591 1.279429 -5.273557 131 76 79
-1.774078 1.279429 -5.273557 133 77 83
-1.764566 1.279429 -5.273557 124 67 76
-1.750890 1.276394 -5.261046 123 66 75
-1.737278 1.273373 -5.248593 123 66 75
-1.727811 1.273373 -5.248593 125 68 76
-1.688419 1.265138 -5.214652 123 61 68
-1.679012 1.265138 -5.214652 118 55 63
-1.669606 1.265138 -5.214652 111 47 55
-1.609668 1.300302 -5.359591 130 61 64
-1.590390 1.292493 -5.327401 132 63 68
-1.573222 1.286312 -5.301927 133 65 69
-1.560859 1.284010 -5.292436 135 67 72
-1.544860 1.278669 -5.270424 136 71 75
-1.533531 1.277151 -5.264168 137 73 78
-1.518628 1.272620 -5.245490 134 72 78
-1.509166 1.272620 -5.245490 131 69 76
-1.497933 1.271116 -5.239293 127 66 73
-1.484099 1.267373 -5.223865 123 63 70
-1.461763 1.256276 -5.178122 118 60 65
-1.431530 1.238205 -5.103638 114 59 62
-1.458407 1.269616 -5.233111 116 61 65
-1.448968 1.269616 -5.233111 122 67 74
-1.436139 1.266627 -5.220790 119 67 74
-1.425882 1.265882 -5.217720 120 69 76
-1.418139 1.267373 -5.223865 127 78 84
-1.411209 1.269616 -5.233111 131 81 90
-1.401770 1.269616 -5.233111 130 79 86
-1.393152 1.270366 -5.236200 131 79 82
-1.380448 1.267373 -5.223865 131 76 79
-1.359813 1.257009 -5.181147 126 67 69
-1.350467 1.257009 -5.181147 120 61 63
-1.341122 1.257009 -5.181147 118 58 60
-1.331776 1.257009 -5.181147 117 56 61
-1.322430 1.257009 -5.181147 116 53 60
-1.364764 1.334988 -5.502558 117 49 59
-1.329276 1.309799 -5.398736 119 49 62
-1.317933 1.308207 -5.392172 123 52 65
-1.308207 1.308207 -5.392172 120 47 59
-1.298480 1.308207 -5.392172 115 39 49
-1.287971 1.307412 -5.388896 113 37 42
-1.277474 1.306618 -5.385624 117 38 43
-1.262394 1.301088 -5.362831 127 49 53
-1.246691 1.294826 -5.337018 132 53 59
-1.237064 1.294826 -5.337018 126 47 53
-1.231141 1.298733 -5.353122 128 48 56
-1.221485 1.298733 -5.353122 128 49 57
-1.203116 1.289395 -5.314633 132 53 59
-1.193529 1.289395 -5.314633 128 52 56
-1.096701 1.224118 -5.045576 128 53 54
-1.086981 1.223422 -5.042708 132 58 59
-1.097858 1.246091 -5.136146 131 58 61
-1.093023 1.251163 -5.157048 130 58 62
-1.082462 1.249710 -5.151059 126 59 63
-1.073171 1.249710 -5.151059 129 63 71
-1.060185 1.245370 -5.133173 132 69 77
-1.059510 1.255543 -5.175101 129 67 77
-1.053248 1.259216 -5.190242 125 65 76
-1.043885 1.259216 -5.190242 128 68 79
-1.069570 1.301875 -5.366076 125 65 77
-1.059891 1.301875 -5.366076 119 59 71
-1.051484 1.303452 -5.372576 122 61 73
-1.041793 1.303452 -5.372576 131 64 80
-1.032727 1.304242 -5.375832 132 61 78
-1.023030 1.304242 -5.375832 131 60 74
-1.011494 1.301875 -5.366076 134 60 73
-0.976991 1.269616 -5.233111 136 61 71
-0.965274 1.266627 -5.220790 134 59 67
-0.956419 1.267373 -5.223865 134 59 64
-0.946996 1.267373 -5.223865 136 62 63
-0.937022 1.266627 -5.220790 133 61 60
-0.926514 1.265138 -5.214652 128 59 58
-0.914420 1.261430 -5.199369 121 58 57
-0.909305 1.267373 -5.223865 116 56 56
-0.907363 1.277910 -5.267294 120 66 68
-0.893617 1.271868 -5.242390 134 83 88
-0.884161 1.271868 -5.242390 137 89 97
-0.873156 1.269616 -5.233111 133 85 96
-0.861176 1.265882 -5.217720 135 84 97
-0.846784 1.258479 -5.187206 132 83 98
-0.835960 1.256276 -5.178122 112 76 93
-0.822777 1.250436 -5.154052 99 79 99
-0.811594 1.247536 -5.142100 98 93 119
-0.803250 1.248984 -5.148069 96 104 134
-0.814286 1.280952 -5.279835 97 110 142
-0.804762 1.280952 -5.279835 103 118 149
-0.792878 1.277151 -5.264168 113 125 153
-0.781065 1.273373 -5.248593 118 122 144
-0.771598 1.273373 -5.248593 121 111 128
-0.764392 1.277151 -5.264168 128 104 113
-0.753108 1.274127 -5.251701 138 102 105
-0.745401 1.277151 -5.264168 140 100 96
-0.737656 1.280190 -5.276694 137 99 86
-0.731183 1.285544 -5.298759 137 103 83
-0.722488 1.287081 -5.305098 135 106 83
-0.712919 1.287081 -5.305098 135 107 81
-0.702090 1.284776 -5.295596 134 106 77
-0.694195 1.287852 -5.308272 133 104 72
-0.666667 1.254079 -5.169069 136 107 69
-0.654672 1.248984 -5.148069 143 114 72
-0.645386 1.248984 -5.148069 144 115 68
-0.636100 1.248984 -5.148069 142 113 62
-0.626814 1.248984 -5.148069 142 116 63
-0.630332 1.274881 -5.254812 141 118 64
-0.622328 1.277910 -5.267294 140 120 68
-0.609569 1.271116 -5.239293 142 122 75
-0.599057 1.268868 -5.230025 142 123 84
-0.587544 1.264395 -5.211588 143 122 93
-0.577465 1.262911 -5.205471 138 116 94
-0.566413 1.259216 -5.190242 130 109 91
-0.556075 1.257009 -5.181147 124 102 83
-0.546729 1.257009 -5.181147 125 100 78
-0.569307 1.331683 -5.488937 136 112 84
-0.559406 1.331683 -5.488937 141 115 83
-0.548148 1.328395 -5.475385 138 111 75
-0.533987 1.317820 -5.431796 136 109 67
-0.515352 1.295605 -5.340230 145 118 74
-0.504808 1.293269 -5.330603 148 120 77
-0.494598 1.291717 -5.324203 145 118 76
-0.484122 1.289395 -5.314633 143 116 77
-0.458599 1.246091 -5.136146 147 122 85
-0.448555 1.243931 -5.127239 147 122 88
-0.439053 1.243212 -5.124277 142 118 83
-0.431054 1.246813 -5.139121 144 119 82
-0.425482 1.257744 -5.184175 145 122 81
-0.417106 1.260691 -5.196323 143 119 77
-0.408931 1.264395 -5.211588 144 122 78
-0.404762 1.280952 -5.279835 142 124 78
-0.395709 1.282479 -5.286128 145 127 81
-0.386174 1.282479 -5.286128 146 128 82
-0.380036 1.294047 -5.333808 144 127 83
-0.370415 1.294047 -5.333808 140 122 82
-0.360794 1.294047 -5.333808 142 123 88
-0.350540 1.291717 -5.324203 144 125 91
-0.341141 1.292493 -5.327401 137 117 81
-0.331532 1.292493 -5.327401 132 112 75
-0.322115 1.293269 -5.330603 128 110 70
-0.312312 1.292493 -5.327401 127 113 73
-0.302340 1.290942 -5.321010 130 117 80
-0.291343 1.284776 -5.295596 132 119 85
-0.280119 1.277151 -5.264168 129 120 84
-0.266511 1.257744 -5.184175 129 124 85
-0.255072 1.247536 -5.142100 130 126 89
-0.188634 1.301088 -5.362831 135 120 91
-0.127584 1.271116 -5.239293 135 111 72
-0.118133 1.271116 -5.239293 133 110 73
-0.108683 1.271116 -5.239293 128 104 68
-0.069686 1.249710 -5.151059 145 116 86
-0.060220 1.246091 -5.136146 143 112 84
-0.050926 1.245370 -5.133173 139 108 80
-0.042453 1.268868 -5.230025 144 109 82
-0.033038 1.269616 -5.233111 150 114 87
-0.023502 1.264395 -5.211588 144 104 78
-0.014019 1.257009 -5.181147 141 102 73
-0.004673 1.257009 -5.181147 132 92 61
0.004717 1.268868 -5.230025 122 81 49
0.014159 1.269616 -5.233111 121 81 46
0.023585 1.268868 -5.230025 130 91 52
0.031818 1.222727 -5.039843 137 99 60
0.040886 1.222033 -5.036981 132 96 56
0.049972 1.222033 -5.036981 124 89 51
0.070671 1.267373 -5.223865 131 100 66
0.079347 1.255543 -5.175101 135 108 74
0.088578 1.254079 -5.169069 138 114 82
0.097222 1.245370 -5.133173 140 119 88
0.106543 1.246091 -5.136146 140 121 90
0.117233 1.261430 -5.199369 139 120 90
0.127358 1.268868 -5.230025 139 118 90
0.136792 1.268868 -5.230025 138 117 89
0.146313 1.269616 -5.233111 138 113 86
0.155660 1.268868 -5.230025 137 110 83
0.165387 1.271116 -5.239293 141 112 84
0.175355 1.274881 -5.254812 142 111 83
0.184944 1.275637 -5.257927 139 108 80
0.194313 1.274881 -5.254812 139 106 78
0.204033 1.276394 -5.261046 135 97 71
0.213650 1.277151 -5.264168 132 91 67
0.223676 1.280190 -5.276694 117 75 50
0.232779 1.277910 -5.267294 108 66 41
0.241993 1.276394 -5.261046 112 71 49
0.250147 1.269616 -5.233111 120 79 60
0.258368 1.263652 -5.208528 125 84 67
0.268235 1.265882 -5.217720 125 83 68
0.278795 1.271116 -5.239293 122 82 70
0.289786 1.277910 -5.267294 116 83 76
0.297696 1.271116 -5.239293 112 90 90
0.306604 1.268868 -5.230025 116 109 118
0.313634 1.259216 -5.190242 103 113 131
0.322430 1.257009 -5.181147 80 104 129
0.330425 1.251891 -5.160048 71 105 133
0.339732 1.251891 -5.160048 70 107 136
0.348837 1.251163 -5.157048 75 108 137
0.358348 1.251891 -5.160048 87 114 141
0.368943 1.256276 -5.178122 105 120 147
0.379169 1.259216 -5.190242 114 114 143
0.388759 1.259953 -5.193281 121 105 137
0.398360 1.260691 -5.196323 134 101 134
0.407733 1.260691 -5.196323 131 84 117
0.416862 1.259953 -5.193281 119 62 92
0.425980 1.259216 -5.190242 121 59 85
0.434579 1.257009 -5.181147 123 57 79
0.442890 1.254079 -5.169069 117 49 70
0.451425 1.251891 -5.160048 110 40 59
0.460733 1.251891 -5.160048 103 32 49
0.470862 1.254079 -5.169069 103 32 43
0.480466 1.254810 -5.172083 106 35 39
0.490368 1.256276 -5.178122 105 35 31
0.507139 1.229012 -5.065747 111 47 44
0.514806 1.225513 -5.051323 115 49 50
0.523918 1.225513 -5.051323 112 47 52
0.532121 1.223422 -5.042708 115 53 62
0.540909 1.222727 -5.039843 129 70 81
0.549376 1.221339 -5.034122 137 82 95
0.558773 1.222033 -5.036981 132 77 91
0.568505 1.223422 -5.042708 118 61 78
0.578917 1.226211 -5.054201 113 56 74
0.590051 1.230417 -5.071540 107 53 71
0.599886 1.231826 -5.077346 108 55 73
0.609742 1.233238 -5.083165 112 59 79
0.619266 1.233945 -5.086080 111 55 79
0.626644 1.230417 -5.071540 107 45 71
0.634341 1.227610 -5.059968 108 43 66
0.641273 1.223422 -5.042708 109 41 57
0.650739 1.224118 -5.045576 108 40 50
0.689815 1.245370 -5.133173 109 39 41
0.691076 1.231121 -5.074441 111 41 41
0.698630 1.228310 -5.062856 113 42 39
0.708167 1.229012 -5.065747 117 43 40
0.719771 1.233238 -5.083165 112 39 35
0.729358 1.233945 -5.086080 108 35 30
0.739380 1.235362 -5.091919 104 30 27
0.749856 1.237493 -5.100703 106 33 27
0.758621 1.236782 -5.097772 111 36 31
0.766495 1.234653 -5.088998 111 38 32
0.777012 1.236782 -5.097772 112 37 32
0.786659 1.237493 -5.100703 113 38 35
0.795402 1.236782 -5.097772 115 36 39
0.802292 1.233238 -5.083165 120 39 45
0.797297 1.211712 -4.994439 119 41 46
0.826313 1.241777 -5.118363 114 38 43
0.837963 1.245370 -5.133173 109 34 41
0.847222 1.245370 -5.133173 104 33 39
0.853518 1.241061 -5.115411 105 38 45
0.857307 1.233238 -5.083165 108 47 54
0.859091 1.222727 -5.039843 106 49 58
0.860360 1.211712 -4.994439 106 53 63
0.869369 1.211712 -4.994439 106 54 66
0.893424 1.219955 -5.028414 111 63 78
0.896396 1.211712 -4.994439 106 57 73
0.905405 1.211712 -4.994439 104 54 73
0.958678 1.270366 -5.236200 104 53 70
0.978145 1.271116 -5.239293 103 49 62
0.970964 1.249710 -5.151059 103 49 61
0.965675 1.231121 -5.074441 100 48 60
0.971494 1.226910 -5.057083 97 45 54
0.979499 1.225513 -5.051323 95 42 49
0.988611 1.225513 -5.051323 98 41 50
0.998291 1.226211 -5.054201 102 43 52
1.007982 1.226910 -5.057083 103 40 51
1.021764 1.232532 -5.080254 103 36 48
1.032110 1.233945 -5.086080 105 34 48
1.043678 1.236782 -5.097772 108 37 51
1.057126 1.241777 -5.118363 111 39 55
1.066975 1.242494 -5.121318 110 39 55
1.076213 1.242494 -5.121318 109 41 56
1.086077 1.243212 -5.124277 109 45 60
1.096588 1.244650 -5.130204 112 49 67
1.106481 1.245370 -5.133173 109 48 65
1.115741 1.245370 -5.133173 110 46 62
1.123050 1.243212 -5.124277 107 44 54
1.131640 1.242494 -5.121318 108 43 48
1.140878 1.242494 -5.121318 108 45 47
1.158813 1.251891 -5.160048 105 45 46
1.170163 1.254079 -5.169069 97 47 55
1.179487 1.254079 -5.169069 113 79 104
1.188811 1.254079 -5.169069 140 118 156
1.198135 1.254079 -5.169069 145 128 169
1.209574 1.256276 -5.178122 140 126 167
1.219626 1.257009 -5.181147 141 129 166
1.229690 1.257744 -5.184175 145 133 168
1.239041 1.257744 -5.184175 147 133 166
1.250585 1.259953 -5.193281 144 129 162
1.253349 1.253349 -5.166059 143 130 164
1.254630 1.245370 -5.133173 138 127 162
1.264621 1.246091 -5.136146 137 127 161
1.285798 1.257744 -5.184175 138 127 162
1.295149 1.257744 -5.184175 137 127 163
1.306027 1.259216 -5.190242 138 129 166
1.321576 1.265138 -5.214652 137 128 165
1.347619 1.280952 -5.279835 137 129 165
1.347518 1.271868 -5.242390 141 135 171
1.353774 1.268868 -5.230025 141 136 170
1.360000 1.265882 -5.217720 139 137 169
1.369412 1.265882 -5.217720 139 139 170
1.382075 1.268868 -5.230025 138 140 171
1.391509 1.268868 -5.230025 138 141 171
1.396825 1.265138 -5.214652 140 143 172
1.402110 1.261430 -5.199369 140 143 173
1.411489 1.261430 -5.199369 143 144 176
1.410943 1.252619 -5.163052 140 139 173
1.416135 1.248984 -5.148069 136 135 168
1.422943 1.246813 -5.139121 138 135 165
1.431384 1.246091 -5.136146 140 137 164
1.424156 1.231826 -5.077346 140 140 161
1.409910 1.211712 -4.994439 134 139 158
1.418919 1.211712 -4.994439 125 132 153
1.427928 1.211712 -4.994439 108 116 142
1.436937 1.211712 -4.994439 92 99 131
1.445946 1.211712 -4.994439 101 105 138
1.454955 1.211712 -4.994439 126 127 159
1.463964 1.211712 -4.994439 143 139 169
1.509348 1.219263 -5.025566 131 121 145
1.509009 1.211712 -4.994439 139 128 152
1.530079 1.221339 -5.034122 143 131 156
1.973072 1.317014 -5.428472 151 127 161
1.963636 1.304242 -5.375832 149 126 160
1.968561 1.301088 -5.362831 151 128 163
1.967529 1.294047 -5.333808 155 133 169
1.959476 1.282479 -5.286128 154 134 170
1.958506 1.275637 -5.257927 154 137 173
1.964497 1.273373 -5.248593 159 144 180
1.968142 1.269616 -5.233111 159 144 180
1.977581 1.269616 -5.233111 160 146 181
2.041642 1.280190 -5.276694 151 137 171
2.085491 1.295605 -5.340230 146 132 168
2.095124 1.295605 -5.340230 151 137 171
2.104756 1.295605 -5.340230 149 135 167
2.097969 1.285544 -5.298759 149 134 165
2.172311 1.278669 -5.270424 158 144 170
2.158730 1.265138 -5.214652 159 144 171
2.168136 1.265138 -5.214652 161 145 174
2.182675 1.268120 -5.226943 164 145 177
2.198581 1.271868 -5.242390 165 146 179
2.371618 1.294047 -5.333808 166 159 186
2.381239 1.294047 -5.333808 164 163 186
2.390860 1.294047 -5.333808 159 159 183
2.400481 1.294047 -5.333808 157 155 180
2.411552 1.294826 -5.337018 159 155 182
2.488358 1.284776 -5.295596 160 149 178
2.494931 1.283244 -5.289280 156 147 174
2.501489 1.281715 -5.282980 157 151 175
2.511019 1.281715 -5.282980 162 157 181
2.641698 1.343321 -5.536906 167 162 187
2.651685 1.343321 -5.536906 165 160 187
2.658354 1.341646 -5.530002 162 160 189
2.660037 1.337477 -5.512817 155 156 186
2.605215 1.305033 -5.379092 145 154 184
2.592904 1.294047 -5.333808 145 157 187
2.583881 1.284776 -5.295596 144 157 188
2.582640 1.279429 -5.273557 135 149 181
2.578356 1.272620 -5.245490 118 134 166
2.550117 1.254079 -5.169069 115 137 166
2.541667 1.245370 -5.133173 114 140 166
2.542099 1.241061 -5.115411 117 141 166
2.545455 1.238205 -5.103638 116 136 161
2.545871 1.233945 -5.086080 109 127 151
2.574234 1.243212 -5.124277 112 129 150
2.581986 1.242494 -5.121318 114 129 148
2.573395 1.233945 -5.086080 115 128 147
2.560546 1.223422 -5.042708 119 127 148
2.568182 1.222727 -5.039843 123 127 152
2.578738 1.223422 -5.042708 126 126 154
-1.969303 1.260921 -5.236200 95 107 121
-1.955241 1.257951 -5.223865 98 118 135
-1.934426 1.250585 -5.193281 106 128 148
-1.923932 1.249854 -5.190242 117 132 154
-1.913450 1.249123 -5.187206 121 118 142
-1.904094 1.249123 -5.187206 124 99 124
-1.892523 1.247663 -5.181147 130 89 113
-1.878788 1.244755 -5.169069 127 73 96
-1.868375 1.244030 -5.166059 114 54 73
-1.859056 1.244030 -5.166059 110 48 62
-1.867137 1.255732 -5.214652 113 50 60
-1.867612 1.262411 -5.242390 113 50 58
-1.858156 1.262411 -5.242390 117 51 58
-1.847608 1.261666 -5.239293 121 54 60
-1.827363 1.254257 -5.208528 123 58 62
-1.810526 1.249123 -5.187206 129 65 67
-1.801170 1.249123 -5.187206 132 68 70
-1.792861 1.249854 -5.190242 128 63 66
-1.787683 1.252786 -5.202418 120 57 58
-1.796209 1.265403 -5.254812 118 57 57
-1.800597 1.275224 -5.295596 121 63 64
-1.785714 1.271429 -5.279835 131 75 78
-1.777248 1.272186 -5.282980 139 83 87
-1.766667 1.271429 -5.279835 136 79 86
-1.755054 1.269917 -5.273557 135 78 85
-1.741400 1.266904 -5.261046 132 75 82
-1.731910 1.266904 -5.261046 134 78 82
-1.687427 1.254994 -5.211588 135 75 77
-1.677040 1.254257 -5.208528 129 69 71
-1.748278 1.337508 -5.554241 122 57 57
-1.738259 1.337508 -5.554241 121 56 54
-1.613568 1.293761 -5.372576 117 49 50
-1.600000 1.290634 -5.359591 118 50 51
-1.576048 1.279042 -5.311451 118 50 51
-1.563658 1.276748 -5.301927 118 52 53
-1.548541 1.272186 -5.282980 118 54 55
-1.534442 1.268409 -5.267294 120 57 58
-1.522229 1.266153 -5.257927 121 60 61
-1.512745 1.266153 -5.257927 121 61 63
-1.500592 1.263905 -5.248593 121 62 64
-1.491124 1.263905 -5.248593 122 64 67
-1.474676 1.257951 -5.223865 121 66 68
-1.479191 1.269917 -5.273557 118 65 65
-1.469679 1.269917 -5.273557 119 68 67
-1.457567 1.267656 -5.264168 127 76 79
-1.438679 1.259434 -5.230025 128 78 81
-1.428403 1.258692 -5.226943 127 79 83
-1.420649 1.260177 -5.233111 133 87 90
-1.415385 1.263905 -5.248593 137 91 94
-1.405086 1.263158 -5.245490 137 89 91
-1.393152 1.260921 -5.236200 141 91 91
-1.382075 1.259434 -5.230025 138 87 86
-1.372642 1.259434 -5.230025 131 77 75
-1.356807 1.253521 -5.205471 128 73 70
-1.345050 1.251318 -5.196323 121 63 61
-1.331776 1.247663 -5.181147 115 55 54
-1.322430 1.247663 -5.181147 118 58 58
-1.327660 1.298480 -5.392172 123 59 64
-1.317132 1.297691 -5.388896 127 61 67
-1.307412 1.297691 -5.388896 125 57 61
-1.298480 1.298480 -5.392172 118 47 47
-1.287971 1.297691 -5.388896 117 44 42
-1.275151 1.294545 -5.375832 118 43 40
-1.257831 1.286747 -5.343448 123 48 45
-1.245192 1.283654 -5.330603 119 41 41
-1.234094 1.282113 -5.324203 121 43 43
-1.224490 1.282113 -5.324203 124 46 48
-1.182934 1.248393 -5.184175 121 43 43
-1.173583 1.248393 -5.184175 122 45 43
-1.175221 1.260177 -5.233111 126 48 46
-1.183942 1.279808 -5.314633 120 45 42
-1.105539 1.245481 -5.172083 124 50 47
-1.098131 1.247663 -5.181147 122 50 48
-1.086880 1.245481 -5.172083 115 45 44
-1.074419 1.241861 -5.157048 122 52 55
-1.065116 1.241861 -5.157048 129 63 67
-1.060748 1.247663 -5.181147 127 64 69
