ply
        format ascii 1.0
        element vertex 64241
        property float x
        property float y
        property float z
        property uchar red
        property uchar green
        property uchar blue
        end_header
6.183709 3.798960 15.389948 80 60 40
6.233044 3.812174 15.443479 81 59 37
6.260870 3.812174 15.443479 76 54 32
6.299652 3.818815 15.470384 67 45 23
6.327526 3.818815 15.470384 66 46 25
6.355401 3.818815 15.470384 73 54 34
6.383275 3.818815 15.470384 90 71 52
6.411150 3.818815 15.470384 75 55 34
7.636364 4.528925 18.347107 63 41 18
7.669422 4.528925 18.347107 69 45 21
7.686598 4.519588 18.309278 75 50 26
7.719588 4.519588 18.309278 80 55 31
7.768595 4.528925 18.347107 79 54 31
7.801653 4.528925 18.347107 79 54 30
7.366907 3.942446 15.971223 78 55 29
7.462795 3.978221 16.116152 77 54 28
7.505455 3.985455 16.145454 77 54 29
4.492693 2.288100 9.269311 74 51 26
4.509395 2.288100 9.269311 75 52 27
4.526096 2.288100 9.269311 77 55 28
4.542798 2.288100 9.269311 80 57 31
4.559499 2.288100 9.269311 81 57 31
4.580982 2.290491 9.278996 80 56 29
4.592902 2.288100 9.269311 79 55 29
6.090909 4.121212 16.818182 72 57 39
6.121212 4.121212 16.818182 71 57 39
6.151515 4.121212 16.818182 69 54 36
5.623763 3.590759 14.653465 64 42 25
5.650165 3.590759 14.653465 66 44 23
5.657895 3.578947 14.605263 80 58 35
5.684210 3.578947 14.605263 80 62 40
5.710526 3.578947 14.605263 80 63 43
5.727422 3.573071 14.581281 78 62 44
5.753695 3.573071 14.581281 79 60 42
6.145329 3.764706 15.363322 78 60 41
6.173010 3.764706 15.363322 80 60 39
6.222222 3.777778 15.416667 82 60 38
6.260870 3.784348 15.443479 77 54 32
6.288696 3.784348 15.443479 68 46 24
6.316522 3.784348 15.443479 67 46 26
6.344348 3.784348 15.443479 74 55 35
6.372174 3.784348 15.443479 91 72 53
6.400000 3.784348 15.443479 73 53 32
7.636364 4.495868 18.347107 63 41 18
7.669422 4.495868 18.347107 68 43 19
7.686598 4.486598 18.309278 76 51 27
7.719588 4.486598 18.309278 82 57 33
7.752577 4.486598 18.309278 81 56 33
7.801653 4.495868 18.347107 80 55 31
7.834711 4.495868 18.347107 78 53 29
4.509395 2.271399 9.269311 74 51 26
4.521377 2.269030 9.259645 77 54 28
4.542798 2.271399 9.269311 80 57 30
4.559499 2.271399 9.269311 80 57 30
4.576200 2.271399 9.269311 79 55 28
4.592902 2.271399 9.269311 78 54 28
6.090909 4.090909 16.818182 70 56 38
6.121212 4.090909 16.818182 69 55 37
6.151515 4.090909 16.818182 67 51 33
5.623763 3.564356 14.653465 63 42 24
5.650165 3.564356 14.653465 66 44 23
5.657895 3.552632 14.605263 78 56 33
5.684210 3.552632 14.605263 79 61 39
5.710526 3.552632 14.605263 79 63 43
5.736842 3.552632 14.605263 79 63 45
5.763158 3.552632 14.605263 79 60 43
6.145329 3.737024 15.363322 77 58 39
6.173010 3.737024 15.363322 79 59 38
6.222222 3.750000 15.416667 82 59 37
6.250000 3.750000 15.416667 77 54 32
6.288696 3.756522 15.443479 69 48 25
6.316522 3.756522 15.443479 68 48 27
6.344348 3.756522 15.443479 77 58 38
6.361111 3.750000 15.416667 93 74 55
6.388889 3.750000 15.416667 74 53 32
7.636364 4.462810 18.347107 65 43 20
7.685300 4.472050 18.385094 69 44 20
7.686598 4.453608 18.309278 77 52 28
7.719588 4.453608 18.309278 83 58 34
7.752577 4.453608 18.309278 81 56 33
7.785567 4.453608 18.309278 79 54 30
7.818557 4.453608 18.309278 77 52 28
7.851546 4.453608 18.309278 76 51 27
7.820041 4.417178 18.159510 74 49 25
7.804878 4.390244 18.048780 73 48 23
7.837399 4.390244 18.048780 74 49 24
4.521377 2.252346 9.259645 78 55 29
4.538061 2.252346 9.259645 80 57 31
4.559499 2.254697 9.269311 79 56 29
4.571429 2.252346 9.259645 78 54 27
4.588113 2.252346 9.259645 77 53 27
4.600000 2.250000 9.250000 75 52 26
4.621481 2.252346 9.259645 73 51 25
6.090909 4.060606 16.818182 82 67 50
6.121212 4.060606 16.818182 82 67 49
6.151515 4.060606 16.818182 77 61 43
5.623763 3.537954 14.653465 62 40 22
5.650165 3.537954 14.653465 66 43 23
5.657895 3.526316 14.605263 76 54 31
5.684210 3.526316 14.605263 78 60 39
5.710526 3.526316 14.605263 80 63 43
5.736842 3.526316 14.605263 80 64 46
5.782178 3.537954 14.653465 80 61 43
6.058520 3.690189 15.283993 78 59 41
6.107081 3.702936 15.336787 75 58 39
6.134715 3.702936 15.336787 76 58 38
6.173010 3.709342 15.363322 78 58 36
6.222222 3.722222 15.416667 81 58 36
6.250000 3.722222 15.416667 76 53 31
6.277778 3.722222 15.416667 70 48 26
6.305555 3.722222 15.416667 69 49 28
6.333333 3.722222 15.416667 79 60 39
6.361111 3.722222 15.416667 92 73 53
6.388889 3.722222 15.416667 74 53 31
6.416667 3.722222 15.416667 67 45 22
7.653608 4.420619 18.309278 72 47 23
7.686598 4.420619 18.309278 79 54 30
7.703704 4.411523 18.271605 82 57 33
7.720739 4.402464 18.234087 80 55 31
7.753593 4.402464 18.234087 77 52 28
7.786448 4.402464 18.234087 75 50 26
7.771429 4.375510 18.122450 75 50 26
7.772358 4.357724 18.048780 75 50 26
7.757576 4.331313 17.939394 75 50 25
7.774194 4.322581 17.903225 75 50 25
7.806452 4.322581 17.903225 77 52 26
4.521377 2.235662 9.259645 79 56 30
4.533333 2.233333 9.250000 81 58 32
4.554745 2.235662 9.259645 79 55 29
4.571429 2.235662 9.259645 77 53 26
4.583333 2.233333 9.250000 77 53 27
4.600000 2.233333 9.250000 76 53 27
4.616667 2.233333 9.250000 76 54 28
4.633333 2.233333 9.250000 79 58 33
6.090909 4.030303 16.818182 82 69 51
6.121212 4.030303 16.818182 84 70 52
6.151515 4.030303 16.818182 79 64 46
5.623763 3.511551 14.653465 63 41 22
5.640857 3.505766 14.629325 68 45 24
5.657895 3.500000 14.605263 75 54 32
5.684210 3.500000 14.605263 78 60 40
5.710526 3.500000 14.605263 79 63 44
5.736842 3.500000 14.605263 80 64 46
5.791736 3.517355 14.677686 80 60 42
6.058520 3.662651 15.283993 78 59 41
6.107081 3.675302 15.336787 76 60 41
6.134715 3.675302 15.336787 77 59 39
6.173010 3.681661 15.363322 78 58 36
6.222222 3.694444 15.416667 80 57 34
6.250000 3.694444 15.416667 74 52 29
6.277778 3.694444 15.416667 69 48 25
6.305555 3.694444 15.416667 67 48 26
6.333333 3.694444 15.416667 78 59 38
6.361111 3.694444 15.416667 88 69 48
6.388889 3.694444 15.416667 70 50 28
6.416667 3.694444 15.416667 67 44 21
6.444445 3.694444 15.416667 72 47 23
7.720739 4.369610 18.234087 78 53 29
7.721881 4.351738 18.159510 75 50 26
7.738776 4.342857 18.122450 73 48 24
7.739837 4.325203 18.048780 74 49 25
7.740891 4.307693 17.975708 75 50 25
7.741935 4.290323 17.903225 76 51 26
7.758551 4.281690 17.867203 76 51 26
7.790744 4.281690 17.867203 77 53 27
4.533333 2.216667 9.250000 81 58 31
4.550000 2.216667 9.250000 78 55 28
4.566667 2.216667 9.250000 76 53 26
4.583333 2.216667 9.250000 76 53 26
4.600000 2.216667 9.250000 76 53 27
4.616667 2.216667 9.250000 77 55 30
4.633333 2.216667 9.250000 81 60 36
4.650000 2.216667 9.250000 87 67 44
6.090909 4.000000 16.818182 82 69 51
6.121212 4.000000 16.818182 85 71 53
6.151515 4.000000 16.818182 81 66 47
5.640857 3.479407 14.629325 71 49 28
5.657895 3.473684 14.605263 77 56 35
5.684210 3.473684 14.605263 77 59 41
5.710526 3.473684 14.605263 79 62 45
5.736842 3.473684 14.605263 80 64 46
5.810946 3.502488 14.726368 80 61 41
6.068965 3.641379 15.310345 78 60 39
6.117647 3.653979 15.363322 75 59 39
6.145329 3.653979 15.363322 77 58 38
6.183709 3.660312 15.389948 78 57 35
6.222222 3.666667 15.416667 78 56 32
6.250000 3.666667 15.416667 72 50 27
6.277778 3.666667 15.416667 67 46 24
6.305555 3.666667 15.416667 66 46 26
6.333333 3.666667 15.416667 80 61 41
6.361111 3.666667 15.416667 90 70 51
6.388889 3.666667 15.416667 74 53 32
6.416667 3.666667 15.416667 70 47 24
6.444445 3.666667 15.416667 72 47 23
6.472222 3.666667 15.416667 76 51 27
7.706122 4.310204 18.122450 76 51 27
7.707317 4.292683 18.048780 75 50 26
7.724138 4.283976 18.012171 76 51 26
7.725253 4.266667 17.939394 76 51 27
7.741935 4.258065 17.903225 77 52 27
7.742972 4.240964 17.831326 76 51 26
7.775100 4.240964 17.831326 78 53 28
7.854546 4.266667 17.939394 79 55 29
4.550000 2.200000 9.250000 76 53 26
4.566667 2.200000 9.250000 75 52 25
4.583333 2.200000 9.250000 75 52 26
4.600000 2.200000 9.250000 75 53 27
4.616667 2.200000 9.250000 77 56 30
4.628512 2.197711 9.240375 81 60 36
4.650000 2.200000 9.250000 87 67 44
7.000000 4.851852 20.555555 79 58 37
7.037037 4.851852 20.555555 74 52 30
7.074074 4.851852 20.555555 71 49 27
6.090909 3.969697 16.818182 83 69 51
6.109641 3.962193 16.786390 86 72 54
6.151515 3.969697 16.818182 81 66 47
5.650165 3.458746 14.653465 73 51 30
5.657895 3.447368 14.605263 79 58 37
5.684210 3.447368 14.605263 78 61 43
5.710526 3.447368 14.605263 80 63 46
5.736842 3.447368 14.605263 81 64 46
6.128250 3.632582 15.389948 75 58 38
6.155979 3.632582 15.389948 77 59 38
6.183709 3.632582 15.389948 80 59 36
6.222222 3.638889 15.416667 81 58 35
6.250000 3.638889 15.416667 74 52 30
6.277778 3.638889 15.416667 70 48 27
6.305555 3.638889 15.416667 68 48 28
6.333333 3.638889 15.416667 82 63 43
6.361111 3.638889 15.416667 89 69 50
6.388889 3.638889 15.416667 73 52 30
6.416667 3.638889 15.416667 68 45 22
6.433276 3.632582 15.389948 69 44 21
6.472222 3.638889 15.416667 75 50 27
7.690428 4.268839 18.085539 77 52 28
7.691684 4.251521 18.012171 76 51 27
7.708502 4.242915 17.975708 76 51 27
7.709677 4.225806 17.903225 78 53 29
7.741935 4.225806 17.903225 79 54 30
7.712000 4.192000 17.760000 77 53 28
7.744000 4.192000 17.760000 78 54 29
7.822937 4.217304 17.867203 79 54 29
4.550000 2.183333 9.250000 76 52 26
4.561914 2.181062 9.240375 75 52 25
4.578564 2.181062 9.240375 75 52 26
4.595213 2.181062 9.240375 74 51 26
4.611863 2.181062 9.240375 76 54 29
4.623701 2.178794 9.230769 80 60 35
4.645161 2.181062 9.240375 87 67 43
6.962963 4.814815 20.555555 85 66 46
7.000000 4.814815 20.555555 78 56 35
7.037037 4.814815 20.555555 71 48 27
7.074074 4.814815 20.555555 67 44 23
7.111111 4.814815 20.555555 76 56 36
6.067924 3.924528 16.754717 84 69 52
6.098113 3.924528 16.754717 86 71 54
6.128302 3.924528 16.754717 80 65 47
5.684210 3.421053 14.605263 78 60 42
5.710526 3.421053 14.605263 81 64 47
6.128250 3.604853 15.389948 76 59 39
6.155979 3.604853 15.389948 79 60 39
6.183709 3.604853 15.389948 81 60 38
6.222222 3.611111 15.416667 82 59 35
6.250000 3.611111 15.416667 74 52 29
6.277778 3.611111 15.416667 69 48 27
6.305555 3.611111 15.416667 67 47 27
6.333333 3.611111 15.416667 82 63 44
6.361111 3.611111 15.416667 86 67 47
6.388889 3.611111 15.416667 70 49 28
6.416667 3.611111 15.416667 67 44 21
6.444445 3.611111 15.416667 68 44 20
6.472222 3.611111 15.416667 76 51 28
7.691684 4.219067 18.012171 74 50 26
7.692929 4.202020 17.939394 74 50 25
7.709677 4.193548 17.903225 79 55 30
7.726358 4.185111 17.867203 80 56 32
7.712000 4.160000 17.760000 78 55 30
7.744000 4.160000 17.760000 78 54 29
4.465499 2.142122 9.145211 76 52 26
4.519211 2.159917 9.221184 76 53 27
4.535826 2.159917 9.221184 76 52 27
4.552440 2.159917 9.221184 76 53 27
4.569055 2.159917 9.221184 75 53 27
4.590436 2.162162 9.230769 71 50 24
4.607069 2.162162 9.230769 74 53 27
4.623701 2.162162 9.230769 80 59 33
4.640333 2.162162 9.230769 85 64 39
6.962963 4.777778 20.555555 85 65 46
7.000000 4.777778 20.555555 78 56 35
7.037037 4.777778 20.555555 71 48 26
7.074074 4.777778 20.555555 67 43 22
7.111111 4.777778 20.555555 76 54 35
7.164733 4.788863 20.603249 81 63 45
6.056497 3.887006 16.723164 84 70 52
6.086629 3.887006 16.723164 85 70 52
6.128302 3.894340 16.754717 79 64 45
6.128250 3.577123 15.389948 77 60 40
6.155979 3.577123 15.389948 80 61 39
6.183709 3.577123 15.389948 81 60 37
6.222222 3.583333 15.416667 80 57 34
6.250000 3.583333 15.416667 72 50 27
6.277778 3.583333 15.416667 67 46 25
6.305555 3.583333 15.416667 65 46 26
6.333333 3.583333 15.416667 82 63 44
6.361111 3.583333 15.416667 84 65 45
6.388889 3.583333 15.416667 69 48 26
6.416667 3.583333 15.416667 68 44 21
6.444445 3.583333 15.416667 70 45 22
6.472222 3.583333 15.416667 77 53 30
7.691684 4.186613 18.012171 72 48 25
7.677419 4.161290 17.903225 73 49 25
7.694165 4.152917 17.867203 80 56 31
7.726358 4.152917 17.867203 81 57 33
7.758551 4.152917 17.867203 79 55 31
4.439877 2.121274 9.126413 80 57 31
4.456321 2.121274 9.126413 79 56 30
4.477366 2.123457 9.135802 78 54 28
4.526425 2.138860 9.202072 75 52 26
4.552440 2.143302 9.221184 75 53 27
4.564315 2.141079 9.211618 74 52 26
4.585670 2.143302 9.221184 71 49 24
4.602284 2.143302 9.221184 75 54 28
4.618899 2.143302 9.221184 81 60 35
4.640333 2.145530 9.230769 86 65 40
6.962963 4.740741 20.555555 85 66 46
7.000000 4.740741 20.555555 80 58 37
7.037037 4.740741 20.555555 73 51 29
7.074074 4.740741 20.555555 70 48 26
7.111111 4.740741 20.555555 77 57 37
7.164733 4.751740 20.603249 83 65 47
12.125000 8.000000 34.687500 88 71 56
12.187500 8.000000 34.687500 85 68 50
12.250000 8.000000 34.687500 80 63 44
6.011215 3.828038 16.598131 84 69 52
6.063790 3.842402 16.660412 84 69 51
8.707775 5.490617 23.806971 79 63 44
8.797844 5.520216 23.935310 78 61 42
8.888889 5.550136 24.065041 80 62 42
8.932249 5.550136 24.065041 79 60 40
6.128250 3.549393 15.389948 76 59 39
6.155979 3.549393 15.389948 79 60 39
6.183709 3.549393 15.389948 81 59 37
6.222222 3.555556 15.416667 79 57 33
6.250000 3.555556 15.416667 71 49 26
6.277778 3.555556 15.416667 66 45 24
6.305555 3.555556 15.416667 65 46 26
6.333333 3.555556 15.416667 83 64 44
6.361111 3.555556 15.416667 83 63 43
6.388889 3.555556 15.416667 68 47 25
6.416667 3.555556 15.416667 68 44 21
6.444445 3.555556 15.416667 71 47 23
6.472222 3.555556 15.416667 79 55 32
7.661972 4.120724 17.867203 74 50 26
7.694165 4.120724 17.867203 79 55 32
7.726358 4.120724 17.867203 80 56 32
4.423433 2.104831 9.126413 81 58 32
4.439877 2.104831 9.126413 82 59 33
4.451746 2.102669 9.117043 80 56 30
4.472764 2.104831 9.126413 77 54 28
4.526425 2.122280 9.202072 74 51 25
4.564315 2.124481 9.211618 74 52 26
4.585670 2.126688 9.221184 72 50 25
4.602284 2.126688 9.221184 77 56 30
4.618899 2.126688 9.221184 82 62 36
6.962963 4.703704 20.555555 85 67 46
7.000000 4.703704 20.555555 81 60 39
7.037037 4.703704 20.555555 76 55 33
7.074074 4.703704 20.555555 74 53 32
7.111111 4.703704 20.555555 80 61 41
7.164733 4.714617 20.603249 85 68 50
12.125000 7.937500 34.687500 89 74 58
12.187500 7.937500 34.687500 87 70 52
12.250000 7.937500 34.687500 81 64 45
5.947956 3.776952 16.505577 84 69 51
5.977695 3.776952 16.505577 85 69 52
6.007435 3.776952 16.505577 84 68 50
8.707775 5.447721 23.806971 78 62 43
8.797844 5.477089 23.935310 77 60 41
8.840970 5.477089 23.935310 79 61 42
8.908108 5.491892 24.000000 79 60 40
8.975610 5.506775 24.065041 70 51 32
6.128250 3.521664 15.389948 76 59 39
6.155979 3.521664 15.389948 80 60 39
6.194445 3.527778 15.416667 81 59 37
6.222222 3.527778 15.416667 79 56 33
6.250000 3.527778 15.416667 70 48 26
6.277778 3.527778 15.416667 66 46 24
6.305555 3.527778 15.416667 67 48 28
6.333333 3.527778 15.416667 84 65 46
6.361111 3.527778 15.416667 82 62 42
6.388889 3.527778 15.416667 67 46 24
6.416667 3.527778 15.416667 67 43 20
6.444445 3.527778 15.416667 71 46 23
6.472222 3.527778 15.416667 80 56 34
10.515464 5.237113 22.886599 74 51 27
10.556701 5.237113 22.886599 77 54 30
4.406989 2.088387 9.126413 80 58 31
4.423433 2.088387 9.126413 81 58 32
4.435318 2.086242 9.117043 80 57 31
4.451746 2.086242 9.117043 78 54 28
4.468173 2.086242 9.117043 75 52 26
4.517063 2.101344 9.183041 72 49 24
6.925926 4.666667 20.555555 84 69 49
6.962963 4.666667 20.555555 83 66 45
7.000000 4.666667 20.555555 80 61 39
7.037037 4.666667 20.555555 77 57 34
7.074074 4.666667 20.555555 77 56 35
7.111111 4.666667 20.555555 80 61 41
12.187500 7.875000 34.687500 90 73 54
12.250000 7.875000 34.687500 83 65 47
5.914972 3.726433 16.414047 85 69 51
5.944547 3.726433 16.414047 86 70 52
6.007435 3.747212 16.505577 84 68 51
8.661333 5.376000 23.680000 79 62 44
8.750670 5.404826 23.806971 78 61 42
8.793566 5.404826 23.806971 79 61 41
8.884097 5.433962 23.935310 78 59 39
8.951351 5.448648 24.000000 69 50 31
6.128250 3.493934 15.389948 78 61 40
6.155979 3.493934 15.389948 81 62 40
6.194445 3.500000 15.416667 82 60 37
6.222222 3.500000 15.416667 79 56 33
6.250000 3.500000 15.416667 70 48 25
6.277778 3.500000 15.416667 66 45 24
6.305555 3.500000 15.416667 68 49 29
6.333333 3.500000 15.416667 86 67 48
6.361111 3.500000 15.416667 81 61 40
6.388889 3.500000 15.416667 67 45 23
6.416667 3.500000 15.416667 66 42 18
6.444445 3.500000 15.416667 71 46 23
10.474227 5.195876 22.886599 73 51 26
10.515464 5.195876 22.886599 74 52 27
10.529563 5.182519 22.827763 77 54 29
10.543590 5.169231 22.769230 82 61 36
10.477158 5.116751 22.538071 84 64 39
10.517767 5.116751 22.538071 78 58 33
4.353183 2.069815 9.117043 73 52 26
4.369610 2.069815 9.117043 74 52 26
4.386037 2.069815 9.117043 78 56 29
4.402464 2.069815 9.117043 81 59 32
4.418891 2.069815 9.117043 81 58 32
4.435318 2.069815 9.117043 80 56 30
4.447179 2.067692 9.107693 77 53 27
4.463590 2.067692 9.107693 75 51 25
4.484600 2.069815 9.117043 73 50 24
6.925926 4.629630 20.555555 83 68 48
6.962963 4.629630 20.555555 81 64 43
7.000000 4.629630 20.555555 79 59 37
7.037037 4.629630 20.555555 77 57 34
7.074074 4.629630 20.555555 76 57 34
7.111111 4.629630 20.555555 76 60 39
5.914972 3.696858 16.414047 84 68 51
5.944547 3.696858 16.414047 86 70 53
5.996289 3.710575 16.474953 86 69 52
8.638298 5.319149 23.617022 81 64 46
8.727273 5.347594 23.743315 81 63 44
8.770054 5.347594 23.743315 81 62 43
8.860215 5.376344 23.870968 79 60 40
8.927224 5.390836 23.935310 68 49 30
6.128250 3.466204 15.389948 80 63 42
6.155979 3.466204 15.389948 83 63 42
6.194445 3.472222 15.416667 82 60 38
6.222222 3.472222 15.416667 78 55 32
6.250000 3.472222 15.416667 68 46 24
6.277778 3.472222 15.416667 65 44 23
6.305555 3.472222 15.416667 69 50 30
6.333333 3.472222 15.416667 87 68 49
6.361111 3.472222 15.416667 80 60 40
6.388889 3.472222 15.416667 68 46 24
6.416667 3.472222 15.416667 67 43 19
6.444445 3.472222 15.416667 71 47 24
10.474227 5.154639 22.886599 74 52 27
10.488432 5.141388 22.827763 75 53 28
10.502564 5.128205 22.769230 76 54 29
10.436548 5.076142 22.538071 83 63 38
10.477158 5.076142 22.538071 85 65 40
10.438287 5.037783 22.367758 78 58 33
10.478589 5.037783 22.367758 78 58 32
4.353183 2.053388 9.117043 72 51 25
4.369610 2.053388 9.117043 74 52 26
4.386037 2.053388 9.117043 78 57 30
4.402464 2.053388 9.117043 81 60 33
4.414359 2.051282 9.107693 82 60 33
4.430769 2.051282 9.107693 82 58 32
4.442623 2.049180 9.098361 79 55 29
4.459016 2.049180 9.098361 75 52 26
4.475410 2.049180 9.098361 73 50 25
6.925926 4.592593 20.555555 84 69 52
6.962963 4.592593 20.555555 80 62 43
7.000000 4.592593 20.555555 77 54 31
7.037037 4.592593 20.555555 80 52 26
7.074074 4.592593 20.555555 78 51 25
7.111111 4.592593 20.555555 73 50 27
5.914972 3.667283 16.414047 81 68 52
5.944547 3.667283 16.414047 84 70 53
5.996289 3.680891 16.474953 84 69 51
8.592592 5.248677 23.492064 80 64 44
8.704000 5.290667 23.680000 79 63 44
8.746667 5.290667 23.680000 79 62 43
8.836461 5.319035 23.806971 79 60 40
8.903226 5.333333 23.870968 68 49 29
6.128250 3.438475 15.389948 81 63 43
6.155979 3.438475 15.389948 83 63 41
6.183709 3.438475 15.389948 82 60 38
6.222222 3.444444 15.416667 77 55 32
6.250000 3.444444 15.416667 68 46 24
6.277778 3.444444 15.416667 65 45 24
6.305555 3.444444 15.416667 71 52 32
6.333333 3.444444 15.416667 89 71 52
6.361111 3.444444 15.416667 80 60 39
6.377816 3.438475 15.389948 69 47 25
6.405546 3.438475 15.389948 68 43 20
6.444445 3.444444 15.416667 71 47 24
10.447301 5.100257 22.827763 76 55 29
10.461538 5.087180 22.769230 77 56 30
10.502564 5.087180 22.769230 78 57 32
10.436548 5.035533 22.538071 85 65 40
10.450633 5.022785 22.481012 85 65 40
10.438287 4.997481 22.367758 77 57 32
10.478589 4.997481 22.367758 77 58 32
10.492462 4.984925 22.311558 78 58 32
4.353183 2.036961 9.117043 71 50 23
4.369610 2.036961 9.117043 74 53 27
4.386037 2.036961 9.117043 79 58 31
4.402464 2.036961 9.117043 82 61 34
4.414359 2.034872 9.107693 84 61 35
4.426229 2.032787 9.098361 83 60 34
4.442623 2.032787 9.098361 79 55 29
4.459016 2.032787 9.098361 75 52 26
4.475410 2.032787 9.098361 73 50 24
4.491803 2.032787 9.098361 76 53 27
6.925926 4.555555 20.555555 84 69 52
6.962963 4.555555 20.555555 80 61 42
7.000000 4.555555 20.555555 76 53 30
7.037037 4.555555 20.555555 79 51 24
7.074074 4.555555 20.555555 77 49 24
7.111111 4.555555 20.555555 73 49 26
5.874539 3.630996 16.383764 77 61 42
5.904059 3.630996 16.383764 79 68 52
5.944547 3.637708 16.414047 83 70 52
5.996289 3.651206 16.474953 82 68 49
8.569921 5.192612 23.430079 77 62 42
8.680851 5.234043 23.617022 76 61 42
8.723404 5.234043 23.617022 76 61 41
8.836461 5.276139 23.806971 79 60 38
8.879356 5.276139 23.806971 68 48 28
8.922252 5.276139 23.806971 63 44 26
6.128250 3.410745 15.389948 80 62 43
6.155979 3.410745 15.389948 81 61 40
6.183709 3.410745 15.389948 82 60 38
6.222222 3.416667 15.416667 76 54 32
6.250000 3.416667 15.416667 65 43 21
6.277778 3.416667 15.416667 64 45 24
6.305555 3.416667 15.416667 72 54 35
6.333333 3.416667 15.416667 90 72 53
6.350087 3.410745 15.389948 76 56 36
6.377816 3.410745 15.389948 65 44 22
6.405546 3.410745 15.389948 65 42 19
6.433276 3.410745 15.389948 70 47 24
10.447301 5.059126 22.827763 79 57 32
10.461538 5.046154 22.769230 80 59 33
10.502564 5.046154 22.769230 82 61 36
10.436548 4.994924 22.538071 87 67 42
10.450633 4.982278 22.481012 84 65 40
10.438287 4.957179 22.367758 77 57 32
10.452261 4.944724 22.311558 77 57 32
10.492462 4.944724 22.311558 77 57 32
4.357657 2.022610 9.126413 70 49 23
4.369610 2.020534 9.117043 75 54 27
4.386037 2.020534 9.117043 80 59 32
4.402464 2.020534 9.117043 83 62 34
4.414359 2.018461 9.107693 84 61 35
4.430769 2.018461 9.107693 82 59 33
4.442623 2.016393 9.098361 77 53 27
4.459016 2.016393 9.098361 73 50 24
4.475410 2.016393 9.098361 72 49 23
4.487206 2.014330 9.089048 75 53 27
4.508197 2.016393 9.098361 75 53 27
6.925926 4.518518 20.555555 84 69 52
6.962963 4.518518 20.555555 79 60 40
7.000000 4.518518 20.555555 75 51 28
7.037037 4.518518 20.555555 76 48 22
7.074074 4.518518 20.555555 75 48 23
7.111111 4.518518 20.555555 74 51 29
5.874539 3.601476 16.383764 78 62 43
5.904059 3.601476 16.383764 79 68 52
5.944547 3.608133 16.414047 83 70 52
5.996289 3.621521 16.474953 81 67 47
8.569921 5.150396 23.430079 76 61 41
8.680851 5.191489 23.617022 75 60 41
8.723404 5.191489 23.617022 76 59 40
8.836461 5.233244 23.806971 77 58 36
8.879356 5.233244 23.806971 66 45 25
8.922252 5.233244 23.806971 63 44 26
6.128250 3.383016 15.389948 81 63 43
6.155979 3.383016 15.389948 82 62 41
6.194445 3.388889 15.416667 84 61 39
6.222222 3.388889 15.416667 75 53 30
6.250000 3.388889 15.416667 63 42 20
6.277778 3.388889 15.416667 63 43 23
6.305555 3.388889 15.416667 73 54 35
6.333333 3.388889 15.416667 92 74 55
6.350087 3.383016 15.389948 75 55 35
6.377816 3.383016 15.389948 65 44 22
6.405546 3.383016 15.389948 65 42 19
6.433276 3.383016 15.389948 71 48 25
10.447301 5.017995 22.827763 81 58 33
10.434783 4.992327 22.710997 80 58 32
10.475703 4.992327 22.710997 80 59 33
10.436548 4.954315 22.538071 86 65 40
10.450633 4.941772 22.481012 84 63 39
10.438287 4.916877 22.367758 78 57 33
10.452261 4.904522 22.311558 77 57 32
10.492462 4.904522 22.311558 79 58 33
10.532663 4.904522 22.311558 81 60 35
4.357657 2.006166 9.126413 71 50 23
4.374101 2.006166 9.126413 75 54 26
4.390545 2.006166 9.126413 79 58 30
4.402464 2.004107 9.117043 83 62 34
4.418891 2.004107 9.117043 82 60 33
4.435318 2.004107 9.117043 80 56 30
4.447179 2.002051 9.107693 75 52 26
4.459016 2.000000 9.098361 73 50 24
4.475410 2.000000 9.098361 73 50 24
4.487206 1.997953 9.089048 76 54 27
4.503582 1.997953 9.089048 74 52 27
6.925926 4.481482 20.555555 85 70 52
6.962963 4.481482 20.555555 79 59 39
7.000000 4.481482 20.555555 74 50 27
7.037037 4.481482 20.555555 75 47 20
7.074074 4.481482 20.555555 75 49 24
7.111111 4.481482 20.555555 76 54 33
5.874539 3.571956 16.383764 79 63 45
5.904059 3.571956 16.383764 80 69 52
5.944547 3.578558 16.414047 84 70 52
5.996289 3.591837 16.474953 81 66 47
8.569921 5.108180 23.430079 76 60 40
8.657825 5.135279 23.554377 75 60 41
8.723404 5.148936 23.617022 76 59 39
8.812834 5.176471 23.743315 77 57 35
8.855615 5.176471 23.743315 62 42 22
8.922252 5.190349 23.806971 61 43 25
6.128250 3.355286 15.389948 81 62 43
6.155979 3.355286 15.389948 83 62 41
6.194445 3.361111 15.416667 84 62 39
6.222222 3.361111 15.416667 74 52 30
6.250000 3.361111 15.416667 63 42 20
6.277778 3.361111 15.416667 62 43 23
6.305555 3.361111 15.416667 74 56 37
6.333333 3.361111 15.416667 91 73 54
6.350087 3.355286 15.389948 75 56 35
6.377816 3.355286 15.389948 66 45 23
6.405546 3.355286 15.389948 66 43 20
6.433276 3.355286 15.389948 73 50 27
10.420513 4.964103 22.769230 80 58 32
10.434783 4.951406 22.710997 79 57 31
10.475703 4.951406 22.710997 80 58 32
10.463104 4.926208 22.595419 86 64 40
10.450633 4.901266 22.481012 83 62 38
10.438287 4.876575 22.367758 79 58 33
10.452261 4.864322 22.311558 78 57 32
10.492462 4.864322 22.311558 79 58 33
10.532663 4.864322 22.311558 82 60 35
4.357657 1.989722 9.126413 73 52 25
4.374101 1.989722 9.126413 76 54 26
4.390545 1.989722 9.126413 79 57 29
4.406989 1.989722 9.126413 83 61 33
4.423433 1.989722 9.126413 81 58 31
4.435318 1.987680 9.117043 79 56 29
4.447179 1.985641 9.107693 76 53 26
4.463590 1.985641 9.107693 75 52 26
4.475410 1.983607 9.098361 75 53 26
4.491803 1.983607 9.098361 77 55 28
4.508197 1.983607 9.098361 73 52 26
6.962963 4.444445 20.555555 79 59 39
7.000000 4.444445 20.555555 74 49 26
7.037037 4.444445 20.555555 73 45 19
7.074074 4.444445 20.555555 75 49 25
5.874539 3.542435 16.383764 81 66 47
5.904059 3.542435 16.383764 82 70 53
5.944547 3.548983 16.414047 84 71 52
8.527704 5.065963 23.430079 81 66 46
8.569921 5.065963 23.430079 77 61 41
8.612137 5.065963 23.430079 76 61 42
8.700265 5.092838 23.554377 77 60 40
8.812834 5.133690 23.743315 77 57 34
8.855615 5.133690 23.743315 59 39 19
8.922252 5.147453 23.806971 60 43 25
6.128250 3.327556 15.389948 79 61 41
6.155979 3.327556 15.389948 81 60 39
6.194445 3.333333 15.416667 83 60 38
6.222222 3.333333 15.416667 74 52 29
6.250000 3.333333 15.416667 65 44 22
6.277778 3.333333 15.416667 64 45 25
6.305555 3.333333 15.416667 76 58 39
6.333333 3.333333 15.416667 90 72 52
6.350087 3.327556 15.389948 74 54 34
6.377816 3.327556 15.389948 67 46 24
6.405546 3.327556 15.389948 68 44 21
6.433276 3.327556 15.389948 74 51 28
10.458333 5.000000 23.125000 81 58 34
10.459949 4.961240 22.945736 78 56 31
10.420513 4.923077 22.769230 79 57 31
10.461538 4.923077 22.769230 77 55 29
10.475703 4.910486 22.710997 79 57 31
10.463104 4.885496 22.595419 84 63 39
10.450633 4.860759 22.481012 83 62 38
10.438287 4.836272 22.367758 80 59 35
10.452261 4.824121 22.311558 78 57 32
10.492462 4.824121 22.311558 79 58 33
10.532663 4.824121 22.311558 81 60 34
10.572865 4.824121 22.311558 83 62 36
4.362140 1.975309 9.135802 74 53 26
4.374101 1.973279 9.126413 76 54 27
4.395061 1.975309 9.135802 79 57 30
4.411523 1.975309 9.135802 82 60 32
4.427984 1.975309 9.135802 81 58 31
4.439877 1.973279 9.126413 79 56 30
4.451746 1.971253 9.117043 78 55 29
4.463590 1.969231 9.107693 76 54 27
4.475410 1.967213 9.098361 75 53 27
4.491803 1.967213 9.098361 76 54 27
4.512821 1.969231 9.107693 73 51 25
6.962963 4.407407 20.555555 78 58 37
7.000000 4.407407 20.555555 72 48 24
7.037037 4.407407 20.555555 71 44 17
7.074074 4.407407 20.555555 74 50 26
5.863720 3.506446 16.353592 82 67 48
5.893186 3.506446 16.353592 82 69 52
5.944547 3.519408 16.414047 85 70 51
8.527704 5.023746 23.430079 80 65 45
8.569921 5.023746 23.430079 76 60 40
8.612137 5.023746 23.430079 78 62 43
8.700265 5.050398 23.554377 78 61 40
8.812834 5.090909 23.743315 76 56 34
8.855615 5.090909 23.743315 59 39 19
8.922252 5.104558 23.806971 64 47 28
6.128250 3.299827 15.389948 78 59 39
6.155979 3.299827 15.389948 79 59 37
6.194445 3.305556 15.416667 82 59 36
6.222222 3.305556 15.416667 73 51 29
6.250000 3.305556 15.416667 66 45 24
6.277778 3.305556 15.416667 65 46 27
6.305555 3.305556 15.416667 78 59 40
6.322357 3.299827 15.389948 88 69 50
6.350087 3.299827 15.389948 72 53 32
6.377816 3.299827 15.389948 67 46 24
6.405546 3.299827 15.389948 69 46 23
10.429319 4.984293 23.246073 82 60 35
10.416667 4.958333 23.125000 81 59 34
10.431169 4.945455 23.064936 79 57 32
10.445596 4.932642 23.005182 78 55 31
10.459949 4.919897 22.945736 78 55 30
10.474227 4.907217 22.886599 78 56 30
10.461538 4.882051 22.769230 77 55 29
10.502564 4.882051 22.769230 78 56 31
10.489796 4.857143 22.653061 82 61 37
10.450633 4.820253 22.481012 82 61 37
10.438287 4.795970 22.367758 81 60 36
10.478589 4.795970 22.367758 78 57 32
10.492462 4.783920 22.311558 79 58 32
10.532663 4.783920 22.311558 80 59 34
10.572865 4.783920 22.311558 83 62 36
4.378601 1.958848 9.135802 76 54 27
4.395061 1.958848 9.135802 79 57 30
4.416066 1.960865 9.145211 81 59 32
4.432544 1.960865 9.145211 79 56 29
4.449022 1.960865 9.145211 79 56 29
5.018518 2.203704 10.277778 80 57 30
5.037037 2.203704 10.277778 77 54 28
4.480000 1.952821 9.107693 75 53 27
4.496410 1.952821 9.107693 75 53 26
6.979118 4.380510 20.603249 75 55 34
7.000000 4.370370 20.555555 69 45 21
7.037037 4.370370 20.555555 68 41 14
7.074074 4.370370 20.555555 73 49 26
5.863720 3.476980 16.353592 82 66 48
5.893186 3.476980 16.353592 81 69 51
5.944547 3.489834 16.414047 83 69 49
8.527704 4.981530 23.430079 79 63 42
8.569921 4.981530 23.430079 75 59 38
8.612137 4.981530 23.430079 78 62 42
8.677249 4.994709 23.492064 78 60 39
8.789333 5.034667 23.680000 76 55 33
8.832000 5.034667 23.680000 62 41 21
8.898396 5.048128 23.743315 68 52 34
6.128250 3.272097 15.389948 78 59 39
6.155979 3.272097 15.389948 79 58 37
6.194445 3.277778 15.416667 81 58 36
6.222222 3.277778 15.416667 72 50 28
6.250000 3.277778 15.416667 66 45 24
6.277778 3.277778 15.416667 65 46 27
6.294627 3.272097 15.389948 79 61 41
6.322357 3.272097 15.389948 87 68 49
6.350087 3.272097 15.389948 72 53 32
6.366782 3.266436 15.363322 69 47 25
6.394464 3.266436 15.363322 70 47 24
10.469657 4.981530 23.430079 83 60 36
10.429319 4.942409 23.246073 81 59 34
10.416667 4.916667 23.125000 79 57 32
10.431169 4.903896 23.064936 78 55 30
10.445596 4.891191 23.005182 77 54 30
10.459949 4.878553 22.945736 78 55 30
10.501292 4.878553 22.945736 79 57 31
10.515464 4.865979 22.886599 78 56 30
10.529563 4.853470 22.827763 78 57 31
10.543590 4.841026 22.769230 80 59 35
10.530612 4.816327 22.653061 82 61 37
10.438287 4.755668 22.367758 82 61 36
10.478589 4.755668 22.367758 78 58 33
10.518891 4.755668 22.367758 79 57 32
10.559194 4.755668 22.367758 80 59 33
5.024334 2.187717 10.289687 80 57 31
5.037037 2.185185 10.277778 77 55 28
5.055555 2.185185 10.277778 75 53 26
7.011655 4.363636 20.699301 73 53 32
7.016241 4.343388 20.603249 67 44 20
7.053364 4.343388 20.603249 67 39 14
7.106977 4.353488 20.651163 73 50 28
5.863720 3.447514 16.353592 81 66 47
5.893186 3.447514 16.353592 81 68 50
5.944547 3.460259 16.414047 83 68 48
8.527704 4.939314 23.430079 77 61 40
8.569921 4.939314 23.430079 74 58 37
8.612137 4.939314 23.430079 78 62 42
8.677249 4.952381 23.492064 79 60 39
8.765958 4.978724 23.617022 76 55 32
8.832000 4.992000 23.680000 63 42 23
8.874666 4.992000 23.680000 71 55 37
6.128250 3.244367 15.389948 79 60 40
6.155979 3.244367 15.389948 80 59 38
6.183709 3.244367 15.389948 81 58 36
6.222222 3.250000 15.416667 71 49 26
6.239168 3.244367 15.389948 64 44 23
6.266898 3.244367 15.389948 63 44 25
6.294627 3.244367 15.389948 80 62 43
6.322357 3.244367 15.389948 87 69 49
6.350087 3.244367 15.389948 74 54 33
6.366782 3.238754 15.363322 70 48 26
6.383420 3.233161 15.336787 70 47 24
10.469657 4.939314 23.430079 82 60 35
10.429319 4.900524 23.246073 80 58 33
10.443864 4.887729 23.185379 78 56 31
10.431169 4.862338 23.064936 76 54 29
10.472727 4.862338 23.064936 77 54 29
10.487046 4.849741 23.005182 78 56 31
10.501292 4.837209 22.945736 80 58 32
10.542636 4.837209 22.945736 79 57 31
10.556701 4.824742 22.886599 79 57 32
10.543590 4.800000 22.769230 80 59 35
10.557545 4.787724 22.710997 83 62 38
10.464646 4.727273 22.424242 82 61 37
10.478589 4.715365 22.367758 79 58 33
10.518891 4.715365 22.367758 78 57 32
10.559194 4.715365 22.367758 80 58 33
5.018518 2.166667 10.277778 80 57 31
5.037037 2.166667 10.277778 77 55 29
5.055555 2.166667 10.277778 76 54 27
5.068208 2.164162 10.265896 76 54 27
7.192307 4.461538 21.346153 84 67 49
7.094340 4.377358 20.943396 73 52 31
7.048951 4.326340 20.699301 69 44 21
7.086247 4.326340 20.699301 69 42 16
7.258907 4.408551 21.092636 76 54 32
5.874539 3.424354 16.383764 81 66 48
5.904059 3.424354 16.383764 81 67 49
5.944547 3.430684 16.414047 83 67 47
8.527704 4.897098 23.430079 76 60 39
8.547368 4.884211 23.368422 74 58 37
8.589474 4.884211 23.368422 79 62 43
8.654353 4.897098 23.430079 79 60 39
8.719577 4.910053 23.492064 75 54 32
8.808511 4.936170 23.617022 61 41 22
8.851064 4.936170 23.617022 72 56 38
6.128250 3.216638 15.389948 79 60 40
6.155979 3.216638 15.389948 80 59 38
6.183709 3.216638 15.389948 80 57 35
6.211439 3.216638 15.389948 70 49 26
6.239168 3.216638 15.389948 65 45 24
6.266898 3.216638 15.389948 64 46 26
6.294627 3.216638 15.389948 82 64 45
6.322357 3.216638 15.389948 87 69 49
6.339100 3.211073 15.363322 74 54 33
6.355786 3.205527 15.336787 71 49 27
6.383420 3.205527 15.336787 71 48 25
6.411054 3.205527 15.336787 76 53 30
10.442105 4.884211 23.368422 82 60 36
10.429319 4.858639 23.246073 80 57 33
10.443864 4.845953 23.185379 78 55 31
10.458333 4.833333 23.125000 77 54 29
10.472727 4.820779 23.064936 78 55 30
10.487046 4.808290 23.005182 80 58 32
10.528498 4.808290 23.005182 82 60 34
10.542636 4.795866 22.945736 80 58 32
10.583980 4.795866 22.945736 80 59 34
10.543590 4.758975 22.769230 81 60 36
10.584616 4.758975 22.769230 84 63 39
10.517767 4.710660 22.538071 82 61 37
10.505051 4.686869 22.424242 79 58 33
10.518891 4.675063 22.367758 78 57 32
5.018518 2.148148 10.277778 80 57 31
5.037037 2.148148 10.277778 79 56 30
5.049711 2.145665 10.265896 78 56 29
5.068208 2.145665 10.265896 77 55 28
5.086705 2.145665 10.265896 76 55 29
7.192307 4.423077 21.346153 84 63 45
7.178998 4.391408 21.193317 74 47 26
7.132075 4.339622 20.943396 70 43 17
7.220902 4.370546 21.092636 70 46 16
7.311005 4.401914 21.244019 77 60 34
8.527704 4.854881 23.430079 76 60 41
8.547368 4.842105 23.368422 76 59 39
8.589474 4.842105 23.368422 80 62 44
8.631579 4.842105 23.368422 79 59 39
8.696570 4.854881 23.430079 73 52 32
8.761905 4.867725 23.492064 61 40 21
8.781003 4.854881 23.430079 74 57 39
8.870027 4.880637 23.554377 87 74 56
6.155979 3.188908 15.389948 79 58 36
6.183709 3.188908 15.389948 79 56 34
6.211439 3.188908 15.389948 72 50 28
6.228374 3.183391 15.363322 69 48 27
6.256055 3.183391 15.363322 69 50 31
6.283737 3.183391 15.363322 85 66 47
6.311419 3.183391 15.363322 86 67 47
6.339100 3.183391 15.363322 72 52 31
6.355786 3.177893 15.336787 71 49 26
6.383420 3.177893 15.336787 72 49 26
6.411054 3.177893 15.336787 77 54 31
6.438687 3.177893 15.336787 76 53 30
3.824311 1.879469 9.070480 75 52 28
3.836735 1.877551 9.061225 76 53 29
3.853061 1.877551 9.061225 78 55 32
3.869388 1.877551 9.061225 80 57 34
3.877800 1.873727 9.042769 81 58 35
3.878296 1.866126 9.006085 81 58 35
3.886640 1.862348 8.987854 80 58 34
10.414699 4.829396 23.307087 83 60 36
10.402089 4.804178 23.185379 80 58 34
10.443864 4.804178 23.185379 78 56 31
10.458333 4.791667 23.125000 78 55 30
10.472727 4.779221 23.064936 79 57 32
10.514286 4.779221 23.064936 81 59 34
10.528498 4.766840 23.005182 83 61 35
10.569948 4.766840 23.005182 81 59 33
10.583980 4.754522 22.945736 82 61 36
10.543590 4.717949 22.769230 84 63 39
10.477158 4.670051 22.538071 85 64 40
10.517767 4.670051 22.538071 81 61 36
5.037037 2.129630 10.277778 80 57 31
5.049711 2.127168 10.265896 79 57 30
5.068208 2.127168 10.265896 77 55 29
5.086705 2.127168 10.265896 75 54 28
5.111111 2.129630 10.277778 78 56 30
7.192307 4.384615 21.346153 83 61 42
7.230769 4.384615 21.346153 73 44 23
7.269231 4.384615 21.346153 70 43 17
7.272727 4.363636 21.244019 72 49 19
7.328537 4.374101 21.294964 78 63 38
7.384615 4.384615 21.346153 86 72 56
8.547368 4.800000 23.368422 76 59 41
8.589474 4.800000 23.368422 80 62 44
8.631579 4.800000 23.368422 77 57 40
8.673684 4.800000 23.368422 71 50 32
8.738787 4.812665 23.430079 62 39 21
8.757895 4.800000 23.368422 78 59 40
8.823219 4.812665 23.430079 88 72 52
6.145329 3.155709 15.363322 80 59 37
6.173010 3.155709 15.363322 78 55 33
6.200692 3.155709 15.363322 71 50 28
6.228374 3.155709 15.363322 69 48 28
6.256055 3.155709 15.363322 70 51 32
6.283737 3.155709 15.363322 85 66 47
6.311419 3.155709 15.363322 83 64 44
6.339100 3.155709 15.363322 69 49 28
6.355786 3.150259 15.336787 70 48 25
6.383420 3.150259 15.336787 73 50 27
6.411054 3.150259 15.336787 79 56 32
6.438687 3.150259 15.336787 77 54 31
3.824311 1.863126 9.070480 76 53 29
3.836735 1.861225 9.061225 74 51 27
3.853061 1.861225 9.061225 76 53 30
3.861507 1.857434 9.042769 80 57 33
3.862069 1.849899 9.006085 82 59 36
3.870445 1.846154 8.987854 82 59 35
3.874874 1.840565 8.960646 81 58 34
3.891019 1.840565 8.960646 80 57 34
10.456693 4.787402 23.307087 81 59 35
10.443864 4.762402 23.185379 79 56 32
10.458333 4.750000 23.125000 78 56 31
10.472727 4.737662 23.064936 80 58 33
10.514286 4.737662 23.064936 82 60 35
10.555844 4.737662 23.064936 83 61 35
10.569948 4.725389 23.005182 81 59 33
10.583980 4.713178 22.945736 84 62 37
10.570694 4.688946 22.827763 86 65 41
10.584616 4.676923 22.769230 85 64 40
5.049711 2.108670 10.265896 79 57 30
5.068208 2.108670 10.265896 77 55 29
5.086705 2.108670 10.265896 74 53 27
5.111111 2.111111 10.277778 78 56 30
5.129630 2.111111 10.277778 83 61 36
7.192307 4.346154 21.346153 81 59 40
7.230769 4.346154 21.346153 71 42 21
7.269231 4.346154 21.346153 71 44 19
7.307693 4.346154 21.346153 74 52 24
8.566929 4.745407 23.307087 79 61 42
8.608924 4.745407 23.307087 77 57 39
8.673684 4.757895 23.368422 70 49 31
8.715790 4.757895 23.368422 60 37 19
8.734908 4.745407 23.307087 78 59 40
8.800000 4.757895 23.368422 87 70 50
6.145329 3.128028 15.363322 80 59 37
6.162349 3.122625 15.336787 76 54 31
6.189983 3.122625 15.336787 70 48 26
6.217617 3.122625 15.336787 67 47 26
6.245250 3.122625 15.336787 69 51 32
6.272884 3.122625 15.336787 84 66 47
6.311419 3.128028 15.363322 81 62 42
6.328152 3.122625 15.336787 69 49 28
6.355786 3.122625 15.336787 70 48 25
6.372414 3.117241 15.310345 74 50 27
6.400000 3.117241 15.310345 79 56 33
6.427586 3.117241 15.310345 78 55 32
3.824311 1.846782 9.070480 76 53 30
3.836735 1.844898 9.061225 72 49 26
3.853061 1.844898 9.061225 75 52 29
3.857579 1.839267 9.033570 79 56 32
3.862069 1.833671 9.006085 82 59 36
3.870445 1.829960 8.987854 81 59 35
3.874874 1.824420 8.960646 80 57 34
3.887097 1.822581 8.951612 79 56 33
3.903226 1.822581 8.951612 77 54 31
3.915408 1.820745 8.942598 75 52 29
10.485640 4.720627 23.185379 77 56 32
10.500000 4.708333 23.125000 80 59 35
10.514286 4.696104 23.064936 80 60 36
10.555844 4.696104 23.064936 81 61 37
10.597403 4.696104 23.064936 82 62 38
10.611399 4.683938 23.005182 84 65 41
10.597939 4.659794 22.886599 85 66 42
10.639175 4.659794 22.886599 84 64 40
5.074074 2.092592 10.277778 76 53 27
5.092593 2.092592 10.277778 74 52 26
5.111111 2.092592 10.277778 79 57 32
5.129630 2.092592 10.277778 84 63 38
5.154114 2.095017 10.289687 89 68 43
5.184669 2.099884 10.313589 85 64 39
5.203252 2.099884 10.313589 82 60 32
7.230769 4.307693 21.346153 68 41 19
8.608924 4.703412 23.307087 79 58 40
8.650919 4.703412 23.307087 70 49 31
8.692913 4.703412 23.307087 57 34 16
8.734908 4.703412 23.307087 77 58 39
8.776903 4.703412 23.307087 85 68 49
6.134715 3.094991 15.336787 79 57 35
6.162349 3.094991 15.336787 74 51 29
6.189983 3.094991 15.336787 67 46 23
6.206897 3.089655 15.310345 65 46 25
6.234483 3.089655 15.310345 69 51 32
6.272884 3.094991 15.336787 85 67 48
6.300518 3.094991 15.336787 82 63 43
6.328152 3.094991 15.336787 73 53 31
6.344828 3.089655 15.310345 72 50 27
6.372414 3.089655 15.310345 75 52 28
6.400000 3.089655 15.310345 79 56 33
6.427586 3.089655 15.310345 78 55 32
3.824311 1.830439 9.070480 76 53 30
3.840654 1.830439 9.070480 72 49 26
3.853061 1.828571 9.061225 75 52 29
3.857579 1.822991 9.033570 79 56 33
3.862069 1.817444 9.006085 82 60 36
3.870445 1.813765 8.987854 81 58 35
3.878788 1.810101 8.969697 80 57 34
3.891019 1.808275 8.960646 80 57 34
3.903226 1.806452 8.951612 79 56 33
3.919355 1.806452 8.951612 77 54 31
3.931521 1.804632 8.942598 75 52 28
3.947634 1.804632 8.942598 78 55 31
10.500000 4.666667 23.125000 77 56 32
10.541667 4.666667 23.125000 79 58 33
10.583333 4.666667 23.125000 80 60 35
10.597403 4.654545 23.064936 81 61 36
10.611399 4.642487 23.005182 84 65 41
10.652850 4.642487 23.005182 85 66 42
3.832591 1.595726 7.907391 79 53 26
3.846839 1.595726 7.907391 81 55 29
3.857651 1.594306 7.900356 82 56 30
3.871886 1.594306 7.900356 81 56 30
5.049711 2.071676 10.265896 77 53 27
5.074074 2.074074 10.277778 75 51 26
5.092593 2.074074 10.277778 75 52 27
5.111111 2.074074 10.277778 81 59 34
5.129630 2.074074 10.277778 85 64 39
5.154114 2.076477 10.289687 88 67 42
5.184669 2.081301 10.313589 85 64 40
5.203252 2.081301 10.313589 83 60 33
5.221835 2.081301 10.313589 80 55 26
8.631579 4.673684 23.368422 79 59 39
8.650919 4.661417 23.307087 69 48 29
8.692913 4.661417 23.307087 56 34 16
8.734908 4.661417 23.307087 76 57 38
6.107081 3.067358 15.336787 83 63 43
6.134715 3.067358 15.336787 79 57 36
6.162349 3.067358 15.336787 74 51 29
6.179310 3.062069 15.310345 66 45 22
6.206897 3.062069 15.310345 64 45 24
6.234483 3.062069 15.310345 69 51 32
6.262069 3.062069 15.310345 85 67 48
6.300518 3.067358 15.336787 82 63 43
6.328152 3.067358 15.336787 76 55 33
6.344828 3.062069 15.310345 73 51 28
6.361446 3.056799 15.283993 75 52 29
6.388985 3.056799 15.283993 79 56 33
6.416523 3.056799 15.283993 78 55 32
3.824311 1.814096 9.070480 75 52 29
3.840654 1.814096 9.070480 72 49 26
3.853061 1.812245 9.061225 75 52 29
3.857579 1.806714 9.033570 79 56 32
3.862069 1.801217 9.006085 82 59 36
3.870445 1.797571 8.987854 81 58 34
3.882710 1.795753 8.978766 80 57 34
3.891019 1.792129 8.960646 81 58 35
3.907165 1.792129 8.960646 80 57 34
3.919355 1.790323 8.951612 79 56 32
3.935484 1.790323 8.951612 76 53 29
3.951613 1.790323 8.951612 80 57 33
10.582677 4.661417 23.307087 77 56 31
10.541667 4.625000 23.125000 79 58 34
10.583333 4.625000 23.125000 81 60 36
10.625000 4.625000 23.125000 83 62 37
10.638961 4.612987 23.064936 85 65 41
10.680519 4.612987 23.064936 84 65 41
4.015326 1.701149 8.505747 78 55 28
4.030652 1.701149 8.505747 75 52 24
3.821747 1.582888 7.914439 79 54 27
3.832591 1.581478 7.907391 78 52 25
3.843416 1.580071 7.900356 79 53 27
3.857651 1.580071 7.900356 80 54 28
3.871886 1.580071 7.900356 79 55 28
3.882667 1.578667 7.893333 77 53 27
5.074074 2.055556 10.277778 75 52 27
5.092593 2.055556 10.277778 76 54 28
5.111111 2.055556 10.277778 80 59 34
5.129630 2.055556 10.277778 84 63 38
5.154114 2.057937 10.289687 86 65 40
5.184669 2.062718 10.313589 84 63 38
5.203252 2.062718 10.313589 82 59 31
5.221835 2.062718 10.313589 80 55 26
8.631579 4.631579 23.368422 76 56 35
8.673684 4.631579 23.368422 67 46 26
8.692913 4.619422 23.307087 58 36 18
8.757895 4.631579 23.368422 77 58 39
6.096552 3.034483 15.310345 84 64 43
6.124138 3.034483 15.310345 81 59 37
6.151724 3.034483 15.310345 75 53 30
6.179310 3.034483 15.310345 66 45 23
6.206897 3.034483 15.310345 64 45 25
6.234483 3.034483 15.310345 69 51 32
6.262069 3.034483 15.310345 83 65 47
6.300518 3.039724 15.336787 80 61 41
6.328152 3.039724 15.336787 75 54 33
6.333907 3.029260 15.283993 72 49 26
6.361446 3.029260 15.283993 75 52 29
6.388985 3.029260 15.283993 79 56 32
3.811861 1.799591 9.079755 77 54 31
3.828221 1.799591 9.079755 74 51 28
3.840654 1.797753 9.070480 71 48 25
3.853061 1.795918 9.061225 75 52 29
3.857579 1.790437 9.033570 79 56 32
3.862069 1.784990 9.006085 82 59 36
3.874367 1.783181 8.996961 80 57 34
3.882710 1.779575 8.978766 79 56 33
3.894949 1.777778 8.969697 80 57 34
3.907165 1.775984 8.960646 79 56 33
3.919355 1.774194 8.951612 78 55 31
3.935484 1.774194 8.951612 75 52 28
10.582677 4.619422 23.307087 78 57 32
10.569191 4.595300 23.185379 80 59 34
10.610966 4.595300 23.185379 82 61 36
10.625000 4.583333 23.125000 84 63 38
10.666667 4.583333 23.125000 85 65 41
10.708333 4.583333 23.125000 83 64 40
4.007678 1.689059 8.522073 81 58 31
4.015326 1.685824 8.505747 79 56 28
4.030652 1.685824 8.505747 74 51 23
3.821747 1.568627 7.914439 79 54 27
3.832591 1.567231 7.907391 78 52 26
3.843416 1.565836 7.900356 78 53 26
3.857651 1.565836 7.900356 79 54 28
3.871886 1.565836 7.900356 79 55 29
3.879219 1.563055 7.886323 78 55 29
3.893428 1.563055 7.886323 77 54 29
5.092593 2.037037 10.277778 78 56 30
5.117033 2.039397 10.289687 81 60 35
5.135573 2.039397 10.289687 85 64 39
5.154114 2.039397 10.289687 86 65 40
5.184669 2.044135 10.313589 85 64 39
5.203252 2.044135 10.313589 82 58 31
5.221835 2.044135 10.313589 80 55 26
8.612137 4.601583 23.430079 76 57 36
8.631579 4.589474 23.368422 74 54 32
8.673684 4.589474 23.368422 66 45 24
8.715790 4.589474 23.368422 61 39 21
6.068965 3.006896 15.310345 81 63 44
6.096552 3.006896 15.310345 83 63 43
6.124138 3.006896 15.310345 82 60 38
6.151724 3.006896 15.310345 76 53 31
6.179310 3.006896 15.310345 66 45 23
6.206897 3.006896 15.310345 65 46 26
6.234483 3.006896 15.310345 71 53 34
6.262069 3.006896 15.310345 83 65 46
6.289655 3.006896 15.310345 79 60 39
6.317241 3.006896 15.310345 74 53 32
6.333907 3.001721 15.283993 71 48 25
6.361446 3.001721 15.283993 75 52 29
6.378007 2.996564 15.257732 79 56 33
3.811861 1.783231 9.079755 77 54 31
3.828221 1.783231 9.079755 74 51 28
3.840654 1.781410 9.070480 72 49 26
3.849133 1.777778 9.051988 76 53 30
3.853658 1.772358 9.024390 80 57 34
3.862069 1.768763 9.006085 82 60 36
3.874367 1.766971 8.996961 80 57 34
3.882710 1.763397 8.978766 79 56 33
3.898888 1.763397 8.978766 79 56 33
3.915066 1.763397 8.978766 78 55 32
8.066390 3.618257 18.423237 76 53 29
8.099586 3.618257 18.423237 72 49 25
10.582677 4.577428 23.307087 78 56 31
10.624672 4.577428 23.307087 79 58 33
10.638743 4.565445 23.246073 81 60 35
10.652741 4.553525 23.185379 83 63 38
10.666667 4.541667 23.125000 85 66 42
10.708333 4.541667 23.125000 82 63 39
4.007678 1.673704 8.522073 81 58 31
4.019176 1.672100 8.513903 80 56 29
4.030652 1.670498 8.505747 74 50 23
4.049856 1.672100 8.513903 67 44 16
3.832591 1.552983 7.907391 78 53 26
3.843416 1.551601 7.900356 78 53 26
3.857651 1.551601 7.900356 79 54 28
3.868444 1.550222 7.893333 79 55 29
3.879219 1.548846 7.886323 78 55 29
3.893428 1.548846 7.886323 78 55 29
5.141531 2.023202 10.301624 85 64 39
5.160093 2.023202 10.301624 86 65 40
5.184669 2.025552 10.313589 84 64 39
5.203252 2.025552 10.313589 81 58 30
5.221835 2.025552 10.313589 79 54 25
8.618667 4.608000 23.680000 77 61 43
8.615385 4.583554 23.554377 77 59 39
8.612137 4.559367 23.430079 76 57 35
8.654353 4.559367 23.430079 74 54 30
8.696570 4.559367 23.430079 64 43 22
8.761905 4.571429 23.492064 61 39 21
6.068965 2.979310 15.310345 80 62 43
6.096552 2.979310 15.310345 82 62 41
6.124138 2.979310 15.310345 82 60 38
6.151724 2.979310 15.310345 75 53 30
6.179310 2.979310 15.310345 66 44 23
6.206897 2.979310 15.310345 66 47 27
6.234483 2.979310 15.310345 73 55 36
6.262069 2.979310 15.310345 84 66 47
6.289655 2.979310 15.310345 78 59 38
6.317241 2.979310 15.310345 74 53 31
6.355786 2.984456 15.336787 72 49 26
3.811861 1.766871 9.079755 78 55 32
3.828221 1.766871 9.079755 76 53 30
3.840654 1.765066 9.070480 75 52 29
3.849133 1.761468 9.051988 79 56 33
3.857579 1.757884 9.033570 82 59 36
3.869919 1.756098 9.024390 83 61 37
3.878296 1.752535 9.006085 80 57 34
3.890578 1.750760 8.996961 78 55 32
7.983437 3.577640 18.385094 78 55 32
8.033195 3.585062 18.423237 77 54 31
8.066390 3.585062 18.423237 75 52 29
8.099586 3.585062 18.423237 73 49 25
10.610080 4.583554 23.554377 74 52 27
10.513089 4.523560 23.246073 76 54 29
10.554974 4.523560 23.246073 78 56 31
10.624672 4.535433 23.307087 79 58 33
10.666667 4.535433 23.307087 81 60 34
10.680628 4.523560 23.246073 83 62 37
10.694517 4.511749 23.185379 86 67 43
10.736293 4.511749 23.185379 82 63 39
4.000000 1.661538 8.538462 79 57 31
4.007678 1.658349 8.522073 81 58 31
4.019176 1.656759 8.513903 79 56 28
4.034516 1.656759 8.513903 72 49 21
4.049856 1.656759 8.513903 67 44 17
