ply
        format ascii 1.0
        element vertex 96054
        property float x
        property float y
        property float z
        property uchar red
        property uchar green
        property uchar blue
        end_header
-1.534694 3.646259 -12.068194 43 47 59
-1.498652 3.611860 -11.954344 46 55 70
-1.455511 3.559097 -11.779712 49 59 75
-1.430464 3.549669 -11.748507 51 61 77
-1.401845 3.530962 -11.686592 56 61 77
-1.377135 3.521682 -11.655878 63 61 75
-1.347258 3.498694 -11.579795 71 60 74
-1.321196 3.485045 -11.534620 73 56 68
-1.300390 3.485045 -11.534620 71 47 58
-1.287958 3.507854 -11.610108 69 41 48
-1.270341 3.517060 -11.640581 68 36 42
-1.250986 3.521682 -11.655878 68 38 42
-1.228346 3.517060 -11.640581 77 48 51
-1.221780 3.559097 -11.779712 82 52 55
3.744991 4.881603 -16.156872 50 46 59
3.713262 4.802867 -15.896277 70 52 66
3.728571 4.785714 -15.839505 79 49 63
3.757143 4.785714 -15.839505 78 40 52
3.785714 4.785714 -15.839505 79 37 43
3.456311 4.336570 -14.352950 88 44 48
3.465379 4.315620 -14.283612 97 51 57
3.479936 4.301765 -14.237758 100 54 60
3.500000 4.294872 -14.214941 92 46 50
3.531300 4.301765 -14.237758 92 47 49
3.545600 4.288000 -14.192197 96 49 50
3.910806 4.596912 -15.214620 88 40 38
3.891526 4.542373 -15.034107 94 45 45
3.931973 4.557823 -15.085243 100 49 51
3.959184 4.557823 -15.085243 105 51 54
4.041379 4.620690 -15.293316 107 51 56
4.111498 4.668990 -15.453176 109 51 56
4.117851 4.644714 -15.372830 108 49 53
4.117040 4.612737 -15.266994 107 50 55
4.102215 4.565588 -15.110942 105 52 57
4.122449 4.557823 -15.085243 99 51 56
4.128596 4.534687 -15.008669 97 51 58
4.141653 4.519393 -14.958049 99 54 62
3.968504 4.220472 -13.968698 122 73 80
3.944012 4.167963 -13.794904 117 64 68
3.884323 4.079148 -13.500948 117 61 62
3.827124 3.994039 -13.219259 116 56 55
3.783309 3.923865 -12.987003 111 48 47
3.801170 3.918129 -12.968017 109 45 43
3.747851 3.839541 -12.707912 108 44 42
3.681119 3.748252 -12.405766 113 49 47
3.703496 3.748252 -12.405766 110 55 58
3.684647 3.706777 -12.268497 104 71 89
3.646259 3.646259 -12.068194 112 105 137
3.604278 3.582888 -11.858453 110 121 158
3.549738 3.507854 -11.610108 102 121 156
3.552083 3.489583 -11.549640 112 129 158
3.549806 3.467012 -11.474933 135 139 161
3.524904 3.422733 -11.328382 130 115 129
3.531807 3.409669 -11.285144 97 63 68
3.552163 3.409669 -11.285144 92 48 48
3.532075 3.371069 -11.157388 108 60 56
3.516812 3.337484 -11.046230 113 67 61
3.471883 3.276284 -10.843671 114 69 62
3.420359 3.209581 -10.622902 115 72 61
3.382803 3.156655 -10.447730 119 77 62
3.327189 3.087558 -10.219036 121 80 65
3.248322 2.997763 -9.921838 123 82 67
3.258929 2.991071 -9.899691 125 81 67
3.273133 2.987737 -9.888655 128 82 68
3.287305 2.984410 -9.877643 124 77 61
3.301446 2.981090 -9.866655 121 75 56
3.940150 3.341646 -11.060004 114 75 56
3.950249 3.333333 -11.032492 118 81 61
3.921376 3.292383 -10.896957 121 86 63
3.926561 3.280294 -10.856944 117 82 59
3.903148 3.244552 -10.738647 109 74 53
3.898917 3.225030 -10.674035 115 79 60
3.821596 3.145540 -10.410942 121 84 66
3.765247 3.084005 -10.207276 120 81 63
3.753425 3.059361 -10.125711 117 75 57
3.763098 3.052392 -10.102646 116 73 53
3.810781 2.948295 -9.758111 116 77 65
3.803279 2.928962 -9.694123 118 79 67
3.820765 2.928962 -9.694123 119 76 68
3.784483 2.887931 -9.558322 119 72 67
3.769231 2.863248 -9.476627 118 68 64
3.734457 2.824025 -9.346810 114 59 56
3.751317 2.824025 -9.346810 115 52 52
3.772152 2.827004 -9.356669 112 46 47
3.793031 2.829989 -9.366550 113 50 51
3.813953 2.832981 -9.376451 114 62 66
6.215909 3.806818 -12.599607 127 80 61
5.756226 3.512451 -11.625325 139 86 68
5.747066 3.494133 -11.564697 147 90 72
5.760417 3.489583 -11.549640 145 87 68
5.743855 3.467012 -11.474933 142 84 65
5.698210 3.427110 -11.342869 140 79 65
5.704082 3.418367 -11.313932 136 75 63
5.739130 3.427110 -11.342869 139 81 62
7.407407 4.315620 -14.283612 144 87 73
7.433172 4.315620 -14.283612 134 65 57
7.519481 4.350649 -14.399550 118 49 40
7.669967 4.422442 -14.637167 117 54 44
7.799331 4.481606 -14.832982 115 64 56
7.865546 4.504202 -14.907770 100 71 69
7.932433 4.527027 -14.983316 103 104 116
8.110155 4.612737 -15.266994 123 125 144
8.179931 4.636678 -15.346233 141 104 122
8.207612 4.636678 -15.346233 107 50 60
-11.270270 9.000000 -29.966633 87 74 46
-11.066667 8.880000 -29.567078 91 77 49
-10.832787 8.734426 -29.082371 92 77 46
-10.339622 8.377358 -27.893469 92 78 46
-9.885197 8.048338 -26.797955 90 78 48
-9.690476 7.928571 -26.399176 78 69 45
-9.529411 7.835294 -26.088596 61 58 49
-9.264368 7.655172 -25.488859 53 55 63
-9.165714 7.611429 -25.343208 57 58 71
-9.068182 7.568182 -25.199213 75 71 85
-8.997168 7.546742 -25.127827 84 77 91
-8.876405 7.483146 -24.916077 75 64 76
-8.613699 7.298630 -24.301706 63 42 48
-8.408602 7.161290 -23.844418 64 33 32
-8.211082 7.029024 -23.404018 68 32 24
-8.000000 6.883721 -22.920214 71 33 21
-7.797468 6.744304 -22.456007 76 39 27
-7.660000 6.660000 -22.175308 76 43 29
-7.488944 6.545455 -21.793915 77 43 28
-7.449631 6.545455 -21.793915 77 41 24
-6.965358 6.152425 -20.485273 74 41 22
-6.880734 6.110092 -20.344318 72 42 26
-6.812786 6.082192 -20.251423 69 41 29
-6.684685 6.000000 -19.977755 62 37 30
-6.833333 6.166667 -20.532692 68 46 44
-10.124138 9.186207 -30.586632 59 41 44
-9.965870 9.092150 -30.273457 39 26 33
-5.878542 5.392713 -17.955715 45 37 47
-5.822581 5.370968 -17.883312 63 59 70
-5.778672 5.360161 -17.847330 76 74 85
-5.746479 5.360161 -17.847330 75 74 83
-5.748988 5.392713 -17.955715 79 73 81
-5.716599 5.392713 -17.955715 81 66 71
-5.813664 5.515528 -18.364643 70 46 46
-5.853250 5.584906 -18.595646 69 37 34
-5.931624 5.692307 -18.953255 72 34 28
-6.079295 5.867841 -19.537716 78 36 33
-6.057395 5.880795 -19.580845 77 37 38
-5.866667 5.729032 -19.075533 66 40 43
-5.721519 5.620253 -18.713339 67 56 59
-5.723991 5.656051 -18.832533 73 60 61
-5.714286 5.680171 -18.912842 66 39 36
-5.704497 5.704497 -18.993839 78 44 39
-5.719223 5.753780 -19.157932 82 46 42
-5.759300 5.829322 -19.409460 81 43 37
-5.774835 5.880795 -19.580845 79 40 33
-5.777778 5.920000 -19.711384 85 44 41
-5.704194 5.880795 -19.580845 82 41 41
-5.643956 5.854945 -19.494776 82 46 44
-5.572052 5.816594 -19.367081 81 52 50
-5.537118 5.816594 -19.367081 79 51 47
-5.454545 5.766234 -19.199400 67 38 37
-5.396552 5.741379 -19.116644 56 30 33
-5.362069 5.741379 -19.116644 50 31 39
-5.293362 5.704497 -18.993839 60 50 60
-5.170527 5.608421 -18.673943 71 72 80
-5.062241 5.526971 -18.402744 79 83 92
-5.029046 5.526971 -18.402744 93 95 103
-5.315673 5.880795 -19.580845 91 87 90
-5.448747 6.068337 -20.205292 91 75 69
-5.154013 5.778742 -19.241047 85 64 52
-5.042735 5.692307 -18.953255 87 66 47
-4.764228 5.414634 -18.028706 83 61 40
-4.409091 5.045455 -16.799475 87 61 45
-4.378788 5.045455 -16.799475 85 59 44
-5.242009 6.082192 -20.251423 85 57 47
-5.480769 6.403846 -21.322411 61 43 40
-4.425926 6.166667 -20.532692 56 65 71
-4.388889 6.166667 -20.532692 63 73 83
-4.351852 6.166667 -20.532692 71 78 94
-4.265446 6.096110 -20.297764 82 87 103
-4.180995 6.027149 -20.068151 81 82 100
-4.135440 6.013544 -20.022852 68 64 81
-3.896996 5.716738 -19.034599 61 51 67
-2.307692 3.415385 -11.371953 63 49 63
-2.258228 3.372152 -11.228004 63 46 58
-2.210000 3.330000 -11.087654 59 42 50
-2.190000 3.330000 -11.087654 56 39 46
-2.172716 3.334168 -11.101531 56 39 45
-2.152691 3.334168 -11.101531 53 36 45
-2.132666 3.334168 -11.101531 44 28 37
-3.136961 4.998124 -16.641882 43 30 37
-3.106942 4.998124 -16.641882 47 35 40
-3.082707 5.007519 -16.673164 47 37 39
-3.046904 4.998124 -16.641882 48 37 41
-2.988847 4.951673 -16.487217 46 33 40
-2.959108 4.951673 -16.487217 40 27 32
-3.290188 5.561587 -18.518002 38 26 30
-3.256785 5.561587 -18.518002 46 38 42
-3.176955 5.481482 -18.251282 59 53 57
-3.099391 5.403651 -17.992136 77 68 74
-3.048387 5.370968 -17.883312 77 61 68
-2.992000 5.328000 -17.740246 69 42 45
-2.879377 5.182879 -17.257050 76 41 38
-2.842718 5.172815 -17.223539 78 43 35
-2.135693 3.929204 -13.082777 74 40 30
-2.090511 3.889051 -12.949084 75 42 31
-1.895582 3.566265 -11.874328 76 44 32
-1.920439 3.654321 -12.167521 77 43 31
-1.916898 3.689751 -12.285489 75 39 29
-1.894737 3.689751 -12.285489 76 37 29
-1.872576 3.689751 -12.285489 77 37 29
-1.582296 3.684647 -12.268497 48 53 67
-1.536785 3.629428 -12.084637 52 60 76
-1.498652 3.590297 -11.954344 55 63 80
-1.463284 3.556742 -11.842621 57 61 79
-1.434263 3.537849 -11.779712 63 62 78
-1.409271 3.528477 -11.748507 69 61 76
-1.386243 3.523809 -11.732967 71 55 68
-1.350785 3.486911 -11.610108 73 49 61
-1.326371 3.477807 -11.579795 69 40 50
-1.308900 3.486911 -11.610108 66 33 40
-1.317269 3.566265 -11.874328 69 33 40
-1.297587 3.571046 -11.890245 74 37 43
-1.276139 3.571046 -11.890245 80 45 48
-1.251337 3.561497 -11.858453 84 52 52
-1.233244 3.571046 -11.890245 72 38 40
3.760436 4.834846 -16.098227 78 79 98
3.741935 4.774194 -15.896277 83 75 93
3.757143 4.757143 -15.839505 81 67 83
3.778966 4.748663 -15.811271 78 60 73
3.689119 4.601036 -15.319729 82 59 70
3.476575 4.303716 -14.329762 89 57 69
3.491143 4.289855 -14.283612 90 53 63
3.505618 4.276083 -14.237758 85 46 55
3.545600 4.262400 -14.192197 94 53 56
3.931973 4.530612 -15.085243 82 29 31
3.959184 4.530612 -15.085243 89 35 36
4.083624 4.641115 -15.453176 102 48 49
4.090121 4.616984 -15.372830 109 53 55
4.027119 4.515254 -15.034107 107 49 51
4.061121 4.522920 -15.059631 104 47 50
4.088285 4.522920 -15.059631 103 49 53
4.108475 4.515254 -15.034107 101 50 56
4.114671 4.492412 -14.958049 98 50 57
4.127731 4.477311 -14.907770 99 52 61
3.968504 4.195276 -13.968698 114 65 74
3.944012 4.143079 -13.794904 116 62 68
3.884323 4.054794 -13.500948 121 62 66
3.827124 3.970194 -13.219259 123 61 63
3.788856 3.906158 -13.006045 123 58 59
3.801170 3.894737 -12.968017 117 51 52
3.764029 3.833094 -12.762767 107 42 42
3.686275 3.731092 -12.423141 105 43 42
3.708683 3.731092 -12.423141 108 55 59
3.684647 3.684647 -12.268497 110 80 100
3.646259 3.624490 -12.068194 116 111 147
3.604278 3.561497 -11.858453 111 123 162
3.554391 3.491481 -11.625325 103 123 159
3.552083 3.468750 -11.549640 112 128 157
3.549806 3.446313 -11.474933 132 137 157
3.524904 3.402299 -11.328382 130 115 126
3.531807 3.389313 -11.285144 102 68 72
3.511950 3.350943 -11.157388 96 54 53
3.510000 3.330000 -11.087654 108 64 60
3.516812 3.317559 -11.046230 113 68 63
3.471883 3.256724 -10.843671 112 69 63
3.416268 3.186603 -10.610195 116 72 63
3.382803 3.137809 -10.447730 118 74 62
3.389671 3.126760 -10.410942 117 73 60
3.345622 3.069124 -10.219036 120 76 65
3.284590 2.996625 -9.977641 124 80 69
3.284116 2.979866 -9.921838 124 80 68
3.294643 2.973214 -9.899691 122 77 62
3.940447 3.305211 -11.005116 112 78 58
3.911765 3.264706 -10.870249 112 79 55
3.883777 3.225182 -10.738647 113 79 55
3.879663 3.205776 -10.674035 114 79 57
3.838863 3.156398 -10.509624 114 78 57
3.830588 3.134118 -10.435439 111 74 56
3.840376 3.126760 -10.410942 115 76 58
3.805556 3.083333 -10.266346 119 78 59
3.810781 2.930693 -9.758111 124 85 71
3.803279 2.911475 -9.694123 121 82 68
3.820765 2.911475 -9.694123 115 73 63
3.784483 2.870690 -9.558322 118 71 64
3.769231 2.846154 -9.476627 119 68 63
3.734457 2.807165 -9.346810 116 60 56
3.751317 2.807165 -9.346810 117 54 53
3.772152 2.810127 -9.356669 113 47 48
3.793031 2.813094 -9.366550 114 50 51
3.822034 2.822034 -9.396317 112 59 63
6.081805 3.757405 -12.510752 127 98 80
6.215909 3.784091 -12.599607 118 75 58
5.778947 3.505263 -11.671214 123 73 57
5.754569 3.477807 -11.579795 126 70 54
5.775457 3.477807 -11.579795 125 67 50
5.725992 3.411011 -11.357392 134 70 56
7.397436 4.269231 -14.214941 140 72 63
7.423077 4.269231 -14.214941 127 54 46
7.545455 4.324676 -14.399550 122 53 44
7.734660 4.417911 -14.709989 116 62 54
7.826087 4.454850 -14.832982 106 76 74
7.905724 4.484848 -14.932867 104 105 117
8.096220 4.577320 -15.240761 118 120 140
8.151724 4.593103 -15.293316 142 107 124
8.179311 4.593103 -15.293316 110 53 62
-11.120000 8.826667 -29.567078 83 73 45
-10.885246 8.681967 -29.082371 90 78 49
-10.389937 8.327044 -27.893469 93 78 47
-9.873874 7.951952 -26.637007 94 80 47
-9.738095 7.880952 -26.399176 87 75 47
-9.576470 7.788235 -26.088596 68 61 41
-9.446064 7.720117 -25.860416 54 53 48
-9.264368 7.609195 -25.488859 63 66 75
-9.165714 7.565714 -25.343208 80 79 93
-9.068182 7.522727 -25.199213 87 79 92
-8.971751 7.480226 -25.056845 80 69 80
-8.851541 7.417367 -24.846283 72 56 64
-8.497297 7.156757 -23.973305 66 42 43
-8.253298 6.986807 -23.404018 68 37 32
-8.041344 6.842377 -22.920214 72 37 27
-7.857868 6.720812 -22.513002 72 36 22
-7.700000 6.620000 -22.175308 75 40 24
-7.528255 6.506143 -21.793915 76 43 26
-7.039261 6.115473 -20.485273 79 44 28
-6.782998 5.923937 -19.843676 78 41 25
-6.747203 5.923937 -19.843676 76 40 25
-6.711410 5.923937 -19.843676 71 38 27
-6.660714 5.910714 -19.799381 59 31 23
-6.566372 5.858407 -19.624166 53 32 29
-6.530973 5.858407 -19.624166 56 41 42
-10.020478 9.037542 -30.273457 50 40 46
-9.965870 9.037542 -30.273457 47 40 49
-5.926531 5.404082 -18.102291 60 55 65
-5.822581 5.338710 -17.883312 71 66 77
-5.790323 5.338710 -17.883312 84 76 86
-5.781376 5.360324 -17.955715 84 73 81
-6.029724 5.622081 -18.832533 75 59 65
-5.995754 5.622081 -18.832533 71 48 49
-5.974468 5.634043 -18.872602 70 40 38
-5.965812 5.658120 -18.953255 69 33 28
-5.982759 5.706897 -19.116644 75 34 28
-5.866667 5.694623 -19.075533 68 42 47
-5.709474 5.574737 -18.673943 67 59 61
-5.675789 5.574737 -18.673943 72 60 59
-5.690021 5.622081 -18.832533 67 39 35
-5.692307 5.658120 -18.953255 79 43 40
-5.719223 5.719223 -19.157932 83 44 41
-5.746725 5.781660 -19.367081 82 43 37
-5.724289 5.794311 -19.409460 83 44 37
-5.726872 5.832599 -19.537716 82 42 36
-5.654267 5.794311 -19.409460 83 42 41
-5.619256 5.794311 -19.409460 78 42 41
-5.559913 5.769063 -19.324886 72 46 45
-5.501085 5.744035 -19.241047 60 40 40
-5.431035 5.706897 -19.116644 52 33 37
-5.396552 5.706897 -19.116644 50 37 46
-5.350538 5.694623 -19.075533 61 57 69
-5.293362 5.670236 -18.993839 71 72 83
-5.170527 5.574737 -18.673943 89 91 98
-5.062241 5.493776 -18.402744 90 89 93
-5.029046 5.493776 -18.402744 87 82 82
-5.315673 5.845475 -19.580845 81 68 63
-5.327394 5.897550 -19.755285 89 66 54
-5.245033 5.845475 -19.580845 86 59 42
-5.119306 5.744035 -19.241047 84 59 39
-5.243848 5.923937 -19.843676 82 57 37
-5.302961 6.031891 -20.205292 83 56 40
-5.278539 6.045662 -20.251423 84 56 43
-5.242009 6.045662 -20.251423 78 49 42
-5.428571 6.304762 -21.119341 64 47 43
-5.442307 6.365385 -21.322411 62 62 67
-5.403846 6.365385 -21.322411 75 73 77
-5.131034 6.087356 -20.391087 68 44 38
-5.173077 6.365385 -21.322411 81 46 40
-5.097852 6.319809 -21.169744 80 46 37
-5.047619 6.304762 -21.119341 89 57 46
-4.825688 6.073394 -20.344318 86 57 43
-4.892087 6.350120 -21.271278 77 45 34
-4.853717 6.350120 -21.271278 67 32 26
-4.735849 6.245283 -20.920101 69 32 29
-4.654206 6.186916 -20.724586 70 36 35
-4.574074 6.129630 -20.532692 71 46 49
-4.537037 6.129630 -20.532692 60 48 52
-4.468966 6.087356 -20.391087 52 52 57
-4.442396 6.101382 -20.438072 58 66 73
-4.425926 6.129630 -20.532692 73 82 94
-4.388889 6.129630 -20.532692 80 88 103
-4.351852 6.129630 -20.532692 81 82 102
-4.275229 6.073394 -20.344318 74 69 89
-4.219178 6.045662 -20.251423 59 50 68
-4.062084 5.871397 -19.667679 52 39 56
-3.799163 5.539749 -18.556744 60 46 60
-3.585657 5.274900 -17.669567 56 41 51
-2.287179 3.394872 -11.371953 53 37 45
-3.166979 4.968105 -16.641882 43 27 36
-3.148776 4.986817 -16.704563 44 32 38
-3.112782 4.977444 -16.673164 45 35 38
-3.088512 4.986817 -16.704563 44 36 36
-3.046904 4.968105 -16.641882 46 36 39
-3.016886 4.968105 -16.641882 45 34 39
-2.986867 4.968105 -16.641882 41 30 34
-3.223382 5.528184 -18.518002 59 53 57
-3.137577 5.437372 -18.213804 78 68 76
-3.060729 5.360324 -17.955715 80 63 71
-3.010060 5.327968 -17.847330 70 43 46
-2.879377 5.151751 -17.257050 74 38 37
-2.168889 3.922963 -13.140924 78 40 35
-2.135693 3.905605 -13.082777 73 37 30
-2.090511 3.865693 -12.949084 72 38 27
-2.067153 3.865693 -12.949084 73 40 27
-2.043796 3.865693 -12.949084 75 42 31
-1.994236 3.815562 -12.781157 75 39 30
-1.907950 3.693166 -12.371161 74 36 29
-1.875173 3.672677 -12.302528 72 32 28
-2.706897 5.706897 -19.116644 58 36 39
-2.655246 5.670236 -18.993839 57 40 41
-2.472727 5.349495 -17.919441 53 41 42
-2.354776 5.161793 -17.290688 47 45 48
-1.560166 3.662517 -12.268497 62 66 82
-1.504736 3.583220 -12.002872 64 63 78
-1.477089 3.568733 -11.954344 67 59 73
-1.443850 3.540107 -11.858453 69 54 67
-1.422460 3.540107 -11.858453 67 46 57
-1.401070 3.540107 -11.858453 65 39 47
-1.376000 3.530667 -11.826831 65 33 40
-1.354667 3.530667 -11.826831 66 31 36
-1.367989 3.622435 -12.134232 71 35 39
-1.346101 3.622435 -12.134232 77 42 45
-1.320600 3.612551 -12.101123 81 46 49
-1.293478 3.597826 -12.051798 85 50 51
-1.261456 3.568733 -11.954344 81 45 45
-1.243243 3.578378 -11.986652 63 27 27
3.807487 4.720142 -15.811271 95 91 108
3.716753 4.573402 -15.319729 97 85 101
3.502423 4.277867 -14.329762 98 78 95
3.522581 4.270968 -14.306650 91 71 84
5.989418 7.005291 -23.465935 92 57 62
4.248175 4.832117 -16.186356 85 38 39
4.277372 4.832117 -16.186356 91 42 43
3.986486 4.472973 -14.983316 94 41 42
4.027119 4.488136 -15.034107 96 41 41
4.061121 4.495756 -15.059631 101 45 46
4.088285 4.495756 -15.059631 100 47 50
4.108475 4.488136 -15.034107 100 50 55
4.128596 4.480541 -15.008669 98 50 57
4.127731 4.450420 -14.907770 100 54 61
3.974763 4.176656 -13.990730 118 69 77
3.956318 4.131045 -13.837946 116 62 69
3.884323 4.030441 -13.500948 120 61 66
3.832836 3.952239 -13.238990 118 57 59
3.816839 3.911374 -13.102102 108 45 46
3.795620 3.865693 -12.949084 104 40 40
3.747851 3.793696 -12.707912 108 45 45
3.681119 3.703496 -12.405766 116 56 55
3.703496 3.703496 -12.405766 114 61 65
3.679558 3.657459 -12.251552 93 60 80
3.641304 3.597826 -12.051798 88 80 114
3.594667 3.530667 -11.826831 97 106 144
3.563732 3.479632 -11.655878 101 121 154
3.552083 3.447917 -11.549640 115 132 158
3.549806 3.425615 -11.474933 134 138 157
3.520408 3.377551 -11.313932 132 118 127
3.527319 3.364676 -11.270804 106 74 77
3.507538 3.326633 -11.143371 97 57 57
3.510000 3.310000 -11.087654 107 66 64
3.516812 3.297634 -11.046230 112 71 68
3.471883 3.237164 -10.843671 114 73 68
3.412186 3.163680 -10.597519 118 75 69
3.423123 3.156138 -10.572256 120 76 68
3.389671 3.107981 -10.410942 121 76 69
5.185714 4.728571 -15.839505 120 75 69
5.195730 4.711744 -15.783137 120 75 69
5.205674 4.695035 -15.727168 122 77 70
5.252669 4.711744 -15.783137 120 76 65
5.262411 4.695035 -15.727168 117 75 59
5.290780 4.695035 -15.727168 117 76 57
5.190311 4.581315 -15.346233 117 76 58
5.103215 4.480541 -15.008669 117 76 58
5.130288 4.480541 -15.008669 118 76 59
3.920988 3.269136 -10.950769 110 79 58
3.864407 3.205811 -10.738647 114 82 59
3.874396 3.198068 -10.712709 120 87 63
3.847255 3.159904 -10.584872 123 88 66
3.838863 3.137441 -10.509624 115 79 59
3.835100 3.118963 -10.447730 110 72 53
3.853946 3.118963 -10.447730 114 75 56
3.811610 2.900329 -9.715360 118 79 65
3.820765 2.893989 -9.694123 117 75 64
3.784483 2.853448 -9.558322 118 72 64
3.789474 2.844254 -9.527522 122 71 64
3.770213 2.817021 -9.436301 119 63 58
3.759240 2.796199 -9.366550 118 56 54
3.776135 2.796199 -9.366550 116 50 51
3.805085 2.805085 -9.396317 112 50 50
3.838298 2.817021 -9.436301 108 56 59
6.109306 3.911374 -13.102102 132 142 167
6.026125 3.843251 -12.873909 126 141 168
5.944445 3.677778 -12.319615 91 87 89
6.000000 3.698324 -12.388440 91 82 82
6.005571 3.688022 -12.353931 96 82 78
6.044693 3.698324 -12.388440 104 88 80
6.075524 3.703496 -12.405766 116 96 85
5.961853 3.607630 -12.084637 120 87 73
5.748691 3.465969 -11.610108 124 81 69
5.754569 3.456919 -11.579795 125 73 61
5.775457 3.456919 -11.579795 116 59 44
7.346154 4.243590 -14.214941 143 96 82
7.371795 4.243590 -14.214941 142 87 75
7.362041 4.223286 -14.146927 140 74 65
7.375796 4.216560 -14.124400 131 56 49
7.424920 4.230032 -14.169526 126 53 45
7.571429 4.298701 -14.399550 119 62 53
7.774086 4.398671 -14.734424 110 78 74
7.879195 4.442953 -14.882757 108 109 119
8.096220 4.549828 -15.240761 119 122 141
8.151724 4.565517 -15.293316 149 113 130
8.179311 4.565517 -15.293316 119 62 70
-11.120000 8.773334 -29.567078 84 75 46
-10.814332 8.573290 -28.892908 88 78 50
-9.921922 7.903904 -26.637007 89 78 48
-9.642229 7.718475 -26.012091 87 75 45
-9.595308 7.718475 -26.012091 73 65 41
-9.492711 7.673470 -25.860416 58 55 41
-9.446064 7.673470 -25.860416 62 62 61
-9.264368 7.563219 -25.488859 80 79 89
-9.165714 7.520000 -25.343208 87 80 92
-9.068182 7.477273 -25.199213 80 65 73
-8.971751 7.435028 -25.056845 72 52 58
-8.851541 7.372549 -24.846283 71 49 52
-8.295514 6.944591 -23.404018 66 40 38
-8.020513 6.748718 -22.743906 67 36 30
-7.898477 6.680203 -22.513002 71 38 28
-7.740000 6.580000 -22.175308 71 38 24
-7.567567 6.466830 -21.793915 75 42 25
-7.158878 6.149533 -20.724586 78 43 27
-6.758315 5.835920 -19.667679 80 43 27
-6.620087 5.746725 -19.367081 78 39 25
-6.528139 5.696970 -19.199400 74 35 24
-6.535948 5.734205 -19.324886 65 29 22
-6.501089 5.734205 -19.324886 50 24 21
-6.480350 5.746725 -19.367081 47 31 35
-6.530973 5.823009 -19.624166 48 41 50
-10.159169 9.107266 -30.692467 52 49 60
-10.103806 9.107266 -30.692467 64 60 69
-9.945206 9.013699 -30.377134 71 61 69
-5.858012 5.338742 -17.992136 70 52 57
-5.849287 5.360489 -18.065424 81 57 60
-6.063694 5.588110 -18.832533 82 54 58
-6.120690 5.672414 -19.116644 73 42 46
-6.047109 5.635974 -18.993839 75 42 45
-6.012848 5.635974 -18.993839 73 38 38
-5.978587 5.635974 -18.993839 71 35 32
-5.982759 5.672414 -19.116644 76 37 32
-5.675789 5.541053 -18.673943 74 59 59
-5.690021 5.588110 -18.832533 69 37 34
-5.692307 5.623931 -18.953255 81 42 37
-5.756522 5.721739 -19.282877 82 43 38
-5.746725 5.746725 -19.367081 80 42 36
-5.762115 5.797357 -19.537716 79 41 32
-5.739514 5.810154 -19.580845 82 42 35
-5.691630 5.797357 -19.537716 83 40 38
-5.656388 5.797357 -19.537716 72 35 36
-5.559913 5.734205 -19.324886 52 26 29
-5.501085 5.709328 -19.241047 50 35 42
-5.431035 5.672414 -19.116644 49 41 52
-5.384946 5.660215 -19.075533 62 62 75
-5.350538 5.660215 -19.075533 73 81 93
-5.293362 5.635974 -18.993839 86 93 102
-5.192389 5.564482 -18.752903 93 91 94
-5.083333 5.483333 -18.479424 90 80 76
-5.050000 5.483333 -18.479424 95 77 69
-5.375000 5.875000 -19.799381 92 69 55
-5.351231 5.888143 -19.843676 86 58 41
-5.303571 5.875000 -19.799381 80 51 33
-5.279642 5.888143 -19.843676 85 58 41
-5.255605 5.901345 -19.888168 80 53 37
-5.302961 5.995444 -20.205292 87 58 44
-5.278539 6.009132 -20.251423 84 56 44
-5.230068 5.995444 -20.205292 72 45 34
-5.205480 6.009132 -20.251423 62 46 39
-5.157176 5.995444 -20.205292 57 56 61
-5.167816 6.050575 -20.391087 75 74 75
-5.084282 5.995444 -20.205292 68 49 42
-5.094253 6.050575 -20.391087 80 52 40
-5.148325 6.296651 -21.220390 86 46 44
-5.097852 6.281623 -21.169744 83 46 40
-5.023697 6.236967 -21.019249 90 56 48
-4.881670 6.106729 -20.580332 88 62 47
-4.844548 6.106729 -20.580332 94 71 54
-4.818604 6.120930 -20.628193 89 63 46
-4.954217 6.342169 -21.373791 75 47 33
-4.975610 6.419512 -21.634447 74 45 36
-4.877109 6.342169 -21.373791 70 42 38
-4.815348 6.311750 -21.271278 69 44 43
-4.698113 6.207547 -20.920101 66 48 49
-4.574074 6.092593 -20.532692 57 50 57
-4.495413 6.036697 -20.344318 60 63 72
-4.428246 5.995444 -20.205292 62 72 82
-4.442396 6.064516 -20.438072 68 80 91
-4.405530 6.064516 -20.438072 84 91 107
-4.388889 6.092593 -20.532692 85 85 103
-4.351852 6.092593 -20.532692 68 56 76
-4.314815 6.092593 -20.532692 55 36 56
-4.238532 6.036697 -20.344318 57 36 53
-4.062084 5.835920 -19.667679 65 45 58
-3.896996 5.648069 -19.034599 66 49 57
-3.742204 5.471933 -18.441004 58 43 48
-3.553785 5.243028 -17.669567 51 39 43
-3.136961 4.938087 -16.641882 45 33 38
-3.106942 4.938087 -16.641882 48 39 40
-3.088512 4.956686 -16.704563 46 40 40
-3.046904 4.938087 -16.641882 47 39 41
-3.016886 4.938087 -16.641882 49 40 43
-2.873786 5.110680 -17.223539 72 34 33
-2.178571 3.916667 -13.199588 76 36 32
-2.135693 3.882006 -13.082777 74 34 28
-2.090511 3.842336 -12.949084 74 36 26
-1.935664 3.681119 -12.405766 72 35 28
-1.907950 3.670851 -12.371161 67 31 27
-1.877778 3.655555 -12.319615 62 27 25
-1.852982 3.650486 -12.302528 54 18 15
-2.723769 5.635974 -18.993839 62 41 47
-2.718615 5.696970 -19.199400 52 41 49
-2.666667 5.660215 -19.075533 46 45 50
-2.472727 5.317172 -17.919441 47 55 56
-2.354776 5.130604 -17.290688 49 64 68
-2.422764 5.349594 -18.028706 50 66 75
-1.514986 3.585831 -12.084637 74 56 67
-1.483085 3.561570 -12.002872 71 46 54
-1.459459 3.556757 -11.986652 68 38 44
-1.439783 3.561570 -12.002872 66 33 36
-1.416216 3.556757 -11.986652 66 31 31
-1.394595 3.556757 -11.986652 68 33 32
-1.340720 3.645429 -12.285489 78 46 48
-1.298772 3.590723 -12.101123 75 42 42
-1.273469 3.580952 -12.068194 68 32 30
-1.251701 3.580952 -12.068194 62 24 23
-1.654584 5.611940 -18.912842 69 37 24
-1.583333 5.483333 -18.479424 69 37 22
-1.537797 5.684665 -19.157932 66 33 18
-1.503240 5.684665 -19.157932 68 33 23
6.275862 7.563219 -25.488859 99 107 124
6.250000 7.477273 -25.199213 89 97 111
5.947090 6.962963 -23.465935 86 82 91
5.989418 6.962963 -23.465935 86 75 83
6.031746 6.962963 -23.465935 83 65 72
5.948186 6.818653 -22.979593 80 56 62
5.708642 6.498765 -21.901539 85 56 60
5.376443 6.078522 -20.485273 91 55 59
5.413395 6.078522 -20.485273 94 53 55
4.158895 4.545769 -15.319729 96 43 46
4.136519 4.491467 -15.136728 97 47 51
3.962500 4.112500 -13.859568 111 56 61
3.896183 4.018321 -13.542172 112 55 55
3.885023 3.981846 -13.419249 108 49 48
3.856716 3.928358 -13.238990 100 40 38
3.840473 3.887740 -13.102102 94 34 30
3.818978 3.842336 -12.949084 96 38 32
3.686275 3.686275 -12.423141 105 49 42
3.708683 3.686275 -12.423141 108 58 56
3.679558 3.635359 -12.251552 95 58 72
3.631436 3.566396 -12.019137 76 59 88
3.589880 3.504660 -11.811083 85 87 121
3.563732 3.458607 -11.655878 107 123 154
3.552083 3.427083 -11.549640 117 132 156
3.554404 3.409326 -11.489797 133 137 154
3.565892 3.400517 -11.460107 137 123 133
3.540816 3.357143 -11.313932 109 79 83
3.507538 3.306533 -11.143371 93 55 58
3.510000 3.290000 -11.087654 101 62 65
3.525593 3.285893 -11.073812 106 67 69
3.532338 3.273632 -11.032492 111 72 72
3.487180 3.213675 -10.830431 113 73 70
5.202899 4.768116 -16.069063 118 74 69
5.184919 4.725314 -15.924817 124 79 77
5.213645 4.725314 -15.924817 120 76 77
5.214286 4.700000 -15.839505 117 73 74
5.242857 4.700000 -15.839505 123 79 78
5.252669 4.683274 -15.783137 120 77 72
5.271759 4.674955 -15.755103 115 73 64
5.207679 4.593368 -15.480145 113 73 61
5.217391 4.577391 -15.426301 115 76 61
5.120543 4.468591 -15.059631 115 74 60
5.130288 4.453469 -15.008669 115 73 59
5.050571 4.293638 -14.470021 110 71 54
5.060163 4.279675 -14.422964 108 72 54
5.086179 4.279675 -14.422964 106 73 53
5.054662 4.231511 -14.260648 108 77 58
5.023848 4.184420 -14.101944 110 79 61
4.878648 4.043011 -13.625381 114 82 63
4.903226 4.043011 -13.625381 119 86 65
3.874396 3.178744 -10.712709 127 92 70
3.851852 3.144564 -10.597519 125 88 69
3.838863 3.118483 -10.509624 116 79 60
3.857820 3.118483 -10.509624 116 78 59
5.229329 4.106084 -13.837946 116 70 52
5.157733 4.030628 -13.583650 113 68 53
5.013333 3.899259 -13.140924 113 69 57
5.034883 3.825581 -12.892621 109 72 59
3.832599 2.898678 -9.768858 112 74 60
3.824945 2.879650 -9.704730 117 75 65
3.784483 2.836207 -9.558322 117 72 65
3.797632 2.833154 -9.548034 118 69 64
3.806659 2.827068 -9.527522 115 61 57
3.787234 2.800000 -9.436301 115 54 53
3.792153 2.791092 -9.406281 116 51 51
3.821277 2.800000 -9.436301 112 50 48
5.667605 3.707042 -12.493131 113 61 73
6.107143 3.916667 -13.199588 117 88 109
6.023392 3.847953 -12.968017 132 108 131
5.925501 3.770774 -12.707912 140 123 147
5.948424 3.770774 -12.707912 141 130 156
5.983287 3.665738 -12.353931 92 102 115
5.988889 3.655555 -12.319615 98 99 110
6.011111 3.655555 -12.319615 92 88 96
5.983471 3.625344 -12.217800 94 88 90
5.940054 3.585831 -12.084637 95 84 79
5.765481 3.467721 -11.686592 98 80 72
5.741177 3.440523 -11.594933 117 90 82
5.754569 3.436031 -11.579795 126 89 82
5.760417 3.427083 -11.549640 121 74 65
5.865258 3.476882 -11.717467 119 63 53
5.886394 3.476882 -11.717467 118 54 45
7.301587 4.177778 -14.079560 143 87 77
7.303797 4.164557 -14.035005 135 69 60
7.305994 4.151420 -13.990730 131 58 49
7.354430 4.164557 -14.035005 120 50 39
7.450479 4.204473 -14.169526 110 56 43
7.735537 4.350413 -14.661361 108 78 71
7.852843 4.401338 -14.832982 107 108 115
8.096220 4.522337 -15.240761 122 126 144
8.151724 4.537931 -15.293316 155 120 137
8.179311 4.537931 -15.293316 115 55 65
-10.973684 8.605263 -29.178036 86 77 49
-10.473186 8.252366 -27.981461 88 81 52
-9.632653 7.626822 -25.860416 84 76 48
-9.586006 7.626822 -25.860416 71 62 38
-9.539358 7.626822 -25.860416 57 50 34
-9.520468 7.649123 -25.936033 57 55 48
-9.446064 7.626822 -25.860416 76 73 75
-9.264368 7.517241 -25.488859 91 81 90
-9.191978 7.495702 -25.415825 79 62 69
-9.068182 7.431818 -25.199213 65 42 44
-9.022727 7.431818 -25.199213 67 42 43
-8.851541 7.327731 -24.846283 71 46 44
-8.061539 6.707692 -22.743906 66 39 33
-7.839599 6.556391 -22.230885 70 40 30
-7.702971 6.475247 -21.955750 72 39 28
-7.478261 6.318841 -21.425419 71 38 24
-7.196262 6.112150 -20.724586 75 42 27
-6.900901 5.891892 -19.977755 78 45 30
-6.655022 5.711791 -19.367081 78 43 29
-6.548596 5.650108 -19.157932 75 37 25
-6.514039 5.650108 -19.157932 63 26 18
-6.493506 5.662338 -19.199400 53 19 18
-6.458874 5.662338 -19.199400 49 25 29
-6.424242 5.662338 -19.199400 48 37 45
-10.285714 9.114983 -30.906353 57 53 63
-10.229965 9.114983 -30.906353 69 65 75
-10.174216 9.114983 -30.906353 71 61 69
-10.153846 9.146853 -31.014416 67 47 51
-10.425993 9.444043 -32.022106 65 35 36
-10.520146 9.582417 -32.491295 73 37 36
-6.360802 5.826281 -19.755285 78 40 40
-6.325167 5.826281 -19.755285 77 38 41
-6.112554 5.662338 -19.199400 81 42 45
-6.012848 5.601713 -18.993839 79 40 42
-5.978587 5.601713 -18.993839 76 38 36
-5.995680 5.650108 -19.157932 81 44 38
-5.791304 5.686956 -19.282877 80 40 36
-5.858407 5.787611 -19.624166 81 43 37
-5.810154 5.774835 -19.580845 79 42 34
-5.774835 5.774835 -19.580845 78 42 33
-5.752213 5.787611 -19.624166 78 41 34
-5.704194 5.774835 -19.580845 74 36 35
-5.656388 5.762115 -19.537716 55 25 27
-5.559913 5.699347 -19.324886 49 31 37
-5.501085 5.674621 -19.241047 65 56 65
-5.431035 5.637931 -19.116644 72 69 83
-5.384946 5.625806 -19.075533 80 82 97
-5.350538 5.625806 -19.075533 88 93 104
-5.316129 5.625806 -19.075533 84 85 90
-5.247863 5.589744 -18.953255 83 73 70
-5.093946 5.461378 -18.518002 88 73 63
-5.060543 5.461378 -18.518002 95 73 58
-5.399103 5.865471 -19.888168 94 68 51
-5.387387 5.891892 -19.977755 83 54 36
-5.327354 5.865471 -19.888168 78 49 31
-5.291480 5.865471 -19.888168 87 59 46
-5.351598 5.972603 -20.251423 75 47 35
-5.302961 5.958998 -20.205292 86 57 43
-5.278539 5.972603 -20.251423 79 51 39
-5.230068 5.958998 -20.205292 73 45 33
-5.205480 5.972603 -20.251423 64 46 40
-5.157176 5.958998 -20.205292 61 55 62
-5.120729 5.958998 -20.205292 81 75 80
-5.038375 5.905192 -20.022852 68 51 44
-4.990991 5.891892 -19.977755 80 53 42
-4.954955 5.891892 -19.977755 77 47 39
-5.224880 6.258373 -21.220390 83 48 44
-5.211538 6.288462 -21.322411 83 43 43
-5.148325 6.258373 -21.220390 84 44 42
-5.097852 6.243437 -21.169744 80 43 37
-5.000000 6.169811 -20.920101 87 53 44
-4.881670 6.069605 -20.580332 85 57 45
-4.844548 6.069605 -20.580332 89 66 50
-5.053658 6.380488 -21.634447 82 59 45
-4.954217 6.303615 -21.373791 72 50 39
-4.915663 6.303615 -21.373791 73 53 48
-4.853717 6.273381 -21.271278 65 49 47
-4.735849 6.169811 -20.920101 56 46 47
-4.643357 6.097902 -20.676277 50 48 53
-4.542529 6.013793 -20.391087 60 64 75
-4.464693 5.958998 -20.205292 59 69 81
-4.348993 5.852349 -19.843676 68 79 93
-4.209607 5.711791 -19.367081 78 87 102
-4.277405 5.852349 -19.843676 84 85 103
-4.348624 6.000000 -20.344318 73 65 83
-4.331797 6.027650 -20.438072 58 40 59
-4.294931 6.027650 -20.438072 63 40 56
-4.219178 5.972603 -20.251423 67 45 57
-3.948276 5.637931 -19.116644 76 57 66
-3.913793 5.637931 -19.116644 54 38 44
-3.742204 5.438669 -18.441004 55 42 45
-3.626016 5.317073 -18.028706 54 44 45
-3.521912 5.211155 -17.669567 54 45 47
-3.111111 4.688172 -15.896277 54 43 49
-3.082437 4.688172 -15.896277 51 37 42
-3.063521 4.747731 -16.098227 53 38 42
-2.985714 4.671429 -15.839505 49 38 40
-3.005445 4.747731 -16.098227 51 43 42
-3.046904 4.908068 -16.641882 48 40 40
-2.301711 4.068429 -13.794904 71 33 32
-2.178571 3.892857 -13.199588 75 34 31
-2.104651 3.802325 -12.892621 76 34 29
-2.081395 3.802325 -12.892621 77 36 28
-2.028653 3.747851 -12.707912 76 36 26
-1.958042 3.658741 -12.405766 73 34 27
-1.930265 3.648535 -12.371161 67 29 25
-1.907950 3.648535 -12.371161 62 25 24
-1.877778 3.633333 -12.319615 57 22 23
-1.850415 3.623269 -12.285489 52 20 20
-1.828255 3.623269 -12.285489 52 24 22
-2.775862 5.637931 -19.116644 57 40 45
-2.723769 5.601713 -18.993839 51 42 50
-2.718615 5.662338 -19.199400 48 48 57
-2.655246 5.601713 -18.993839 50 60 66
-2.472727 5.284849 -17.919441 50 67 71
-2.354776 5.099415 -17.290688 48 66 73
-2.422764 5.317073 -18.028706 52 66 77
-1.531680 3.603306 -12.217800 72 41 48
-1.507565 3.598349 -12.200994 70 32 36
-1.469388 3.559184 -12.068194 69 28 29
-1.453552 3.573771 -12.117655 71 29 28
-1.425850 3.559184 -12.068194 76 36 32
-1.423448 3.608276 -12.234653 79 43 37
-1.367232 3.694915 -12.528422 64 34 32
-1.318560 3.623269 -12.285489 63 31 29
-1.273469 3.559184 -12.068194 67 31 29
-1.251701 3.559184 -12.068194 66 29 25
-1.609959 5.427386 -18.402744 70 38 23
-1.576764 5.427386 -18.402744 68 36 21
-1.537797 5.650108 -19.157932 70 36 23
-1.503240 5.650108 -19.157932 73 35 27
6.480712 7.762611 -26.320841 108 129 150
6.528190 7.762611 -26.320841 103 124 143
6.575668 7.762611 -26.320841 105 124 141
6.234637 7.307262 -24.776880 102 119 135
5.947090 6.920635 -23.465935 103 113 130
5.865285 6.777202 -22.979593 103 105 120
5.876289 6.742268 -22.861141 100 97 111
5.669136 6.459259 -21.901539 108 100 113
5.465721 6.184397 -20.969559 114 103 113
5.376443 6.041571 -20.485273 100 86 93
5.232143 5.839286 -19.799381 88 69 73
4.763705 4.945179 -16.767719 98 55 58
4.602541 4.747731 -16.098227 91 43 45
3.987500 4.087500 -13.859568 87 35 34
3.926605 4.000000 -13.562880 89 35 32
4.394558 4.448979 -15.085243 90 35 31
4.421769 4.448979 -15.085243 91 37 30
4.309720 4.309720 -14.613052 100 46 37
4.328948 4.302631 -14.589018 110 57 47
3.708683 3.663866 -12.423141 112 64 58
3.684647 3.618257 -12.268497 106 68 77
3.631436 3.544715 -12.019137 95 73 97
3.589880 3.483356 -11.811083 98 97 127
3.563732 3.437582 -11.655878 107 122 151
3.552083 3.406250 -11.549640 116 132 155
3.572917 3.406250 -11.549640 139 143 160
5.231884 4.739130 -16.069063 116 71 74
5.223022 4.705036 -15.953459 115 72 80
5.214286 4.671429 -15.839505 112 70 79
5.242857 4.671429 -15.839505 115 73 79
5.243339 4.646536 -15.755103 114 72 74
5.262411 4.638298 -15.727168 108 67 65
5.198606 4.557491 -15.453176 109 69 63
5.217391 4.549565 -15.426301 115 75 66
5.120543 4.441426 -15.059631 116 75 65
5.130288 4.426396 -15.008669 117 74 64
5.060163 4.253659 -14.422964 105 69 50
5.086179 4.253659 -14.422964 99 65 46
5.054662 4.205788 -14.260648 100 67 50
5.023848 4.158982 -14.101944 102 71 54
4.947041 4.074766 -13.816391 109 77 59
4.941176 4.049536 -13.730841 114 81 61
4.965944 4.049536 -13.730841 121 86 67
5.125596 4.158982 -14.101944 125 89 70
5.151033 4.158982 -14.101944 118 81 63
5.160063 4.145800 -14.057247 115 78 59
5.211357 4.126183 -13.990730 125 81 62
5.236593 4.126183 -13.990730 126 80 61
5.245283 4.113207 -13.946734 123 76 59
5.229329 4.081123 -13.837946 119 73 57
5.019374 3.898659 -13.219259 115 70 56
5.005917 3.869823 -13.121484 111 67 57
5.014749 3.858407 -13.082777 108 66 58
5.038348 3.858407 -13.082777 108 68 60
5.024890 3.830161 -12.987003 110 71 64
5.004354 3.796807 -12.873909 113 75 66
5.013025 3.785818 -12.836647 110 73 62
5.007194 3.764029 -12.762767 107 70 58
3.824945 2.862144 -9.704730 107 68 58
3.796757 2.828108 -9.589322 112 70 63
3.805825 2.822006 -9.568633 116 70 64
5.957704 3.951662 -13.398977 120 58 59
5.981873 3.951662 -13.398977 130 69 68
5.829912 3.835777 -13.006045 123 62 61
5.802326 3.802325 -12.892621 127 65 66
5.677054 3.705382 -12.563913 131 71 75
5.715909 3.715909 -12.599607 132 75 82
5.738636 3.715909 -12.599607 127 73 83
6.083333 3.892857 -13.199588 110 55 67
6.000000 3.824561 -12.968017 115 58 70
6.023392 3.824561 -12.968017 124 67 78
5.968254 3.774892 -12.799601 125 71 83
5.948424 3.747851 -12.707912 128 77 91
5.912057 3.710638 -12.581735 138 93 110
6.247059 3.847059 -13.044298 131 137 156
5.964039 3.618257 -12.268497 109 118 145
5.961432 3.603306 -12.217800 103 112 136
5.894166 3.549525 -12.035445 94 104 121
5.813334 3.488000 -11.826831 82 92 100
5.765481 3.446640 -11.686592 88 92 95
5.741177 3.419608 -11.594933 96 95 95
5.754569 3.415143 -11.579795 99 90 92
5.760417 3.406250 -11.549640 95 76 76
5.796345 3.415143 -11.579795 101 71 68
5.832461 3.424084 -11.610108 113 72 68
5.923179 3.464901 -11.748507 119 68 66
6.216066 3.623269 -12.285489 115 59 51
7.244094 4.119685 -13.968698 140 84 77
7.246468 4.106750 -13.924840 138 73 64
7.248827 4.093897 -13.881257 131 61 52
7.273865 4.093897 -13.881257 123 53 43
7.356467 4.126183 -13.990730 108 53 39
7.735537 4.323967 -14.661361 100 68 57
7.852843 4.374582 -14.832982 106 105 110
8.096220 4.494845 -15.240761 117 121 137
8.151724 4.510345 -15.293316 150 118 132
8.179311 4.510345 -15.293316 109 48 57
-10.866449 8.469055 -28.892908 91 80 52
-10.310559 8.074534 -27.546967 86 80 55
-9.804154 7.715134 -26.320841 71 67 47
-9.642229 7.624633 -26.012091 61 58 44
-9.595308 7.624633 -26.012091 61 59 54
-9.520468 7.602339 -25.936033 76 72 74
-9.446064 7.580175 -25.860416 92 80 85
-9.264368 7.471264 -25.488859 83 61 66
-9.218390 7.471264 -25.488859 69 41 41
-9.120000 7.428571 -25.343208 66 35 31
-9.022727 7.386364 -25.199213 68 40 35
-8.851541 7.282913 -24.846283 69 45 40
-7.879699 6.516291 -22.230885 67 41 32
-7.647922 6.356968 -21.687342 72 39 27
-7.516908 6.280193 -21.425419 76 39 25
-7.389021 6.205251 -21.169744 76 39 27
-7.129630 6.018518 -20.532692 77 43 31
-6.885393 5.842697 -19.932861 76 44 33
-6.655022 5.676856 -19.367081 75 42 31
-6.548596 5.615551 -19.157932 66 32 24
-6.514039 5.615551 -19.157932 50 18 16
-6.479482 5.615551 -19.157932 48 21 27
-6.458874 5.627706 -19.199400 52 34 42
-6.424242 5.627706 -19.199400 55 48 56
-10.285714 9.059234 -30.906353 71 66 73
-10.229965 9.059234 -30.906353 77 66 71
-10.174216 9.059234 -30.906353 68 47 49
-10.483754 9.386282 -32.022106 63 30 29
-10.578754 9.523809 -32.491295 68 29 25
-10.520146 9.523809 -32.491295 79 39 33
-6.086207 5.603448 -19.116644 86 44 48
-6.012848 5.567452 -18.993839 82 40 43
-6.004301 5.591398 -19.075533 79 41 40
-6.594059 6.435644 -21.955750 79 39 34
-6.045662 5.936073 -20.251423 81 42 35
-5.875000 5.803571 -19.799381 73 37 28
-5.839286 5.803571 -19.799381 70 37 29
-5.777778 5.777778 -19.711384 67 37 34
-5.716814 5.752213 -19.624166 58 31 34
-5.668874 5.739514 -19.580845 57 40 45
-5.621145 5.726872 -19.537716 67 62 69
-5.501085 5.639913 -19.241047 76 74 83
-5.431035 5.603448 -19.116644 87 83 96
-5.396552 5.603448 -19.116644 94 86 97
-5.362069 5.603448 -19.116644 85 73 79
-5.327586 5.603448 -19.116644 80 64 63
-5.293103 5.603448 -19.116644 84 66 55
-5.104602 5.439331 -18.556744 91 72 56
-5.071130 5.439331 -18.556744 90 72 52
-5.497717 5.936073 -20.251423 88 65 47
-5.461187 5.936073 -20.251423 76 49 33
-5.387755 5.895691 -20.113657 77 49 35
-5.157176 5.922551 -20.205292 67 55 65
-5.074492 5.869074 -20.022852 79 68 76
-5.027027 5.855856 -19.977755 68 47 44
-4.990991 5.855856 -19.977755 79 50 42
-4.803493 5.676856 -19.367081 77 44 37
-4.768559 5.676856 -19.367081 82 47 41
-5.174224 6.205251 -21.169744 84 47 41
-5.136038 6.205251 -21.169744 84 47 41
-5.061611 6.161138 -21.019249 79 42 34
-4.930233 6.046512 -20.628193 83 49 40
-4.881670 6.032483 -20.580332 83 51 42
-4.833333 6.018518 -20.532692 78 49 41
-4.763218 5.977012 -20.391087 74 54 46
-4.915663 6.265060 -21.373791 62 59 56
-4.784870 6.146572 -20.969559 49 53 54
-4.747045 6.146572 -20.969559 49 56 61
-4.643357 6.060606 -20.676277 57 67 76
-4.606061 6.060606 -20.676277 66 75 90
-4.394619 5.829597 -19.888168 71 79 96
-4.226087 5.652174 -19.282877 72 79 96
-4.173160 5.627706 -19.199400 86 88 105
-4.147505 5.639913 -19.241047 87 79 96
-4.130719 5.664488 -19.324886 61 45 61
-4.095860 5.664488 -19.324886 64 43 56
-4.034632 5.627706 -19.199400 63 41 53
-3.965665 5.579399 -19.034599 57 42 48
-3.906183 5.543710 -18.912842 55 44 48
-3.453125 5.078125 -17.324459 53 42 46
-3.324478 4.933586 -16.831352 56 44 50
-3.111111 4.659498 -15.896277 54 42 46
-3.082437 4.659498 -15.896277 50 36 39
-2.969805 4.618117 -15.755103 50 39 38
-2.957143 4.642857 -15.839505 47 39 36
-3.009174 4.770642 -16.275455 47 39 36
-3.001848 4.805915 -16.395792 51 42 42
-2.972274 4.805915 -16.395792 47 37 38
-2.301711 4.043546 -13.794904 74 35 34
-2.178571 3.869048 -13.199588 79 36 35
-2.104651 3.779070 -12.892621 78 33 31
-2.051576 3.724928 -12.707912 77 33 28
-1.983193 3.641457 -12.423141 77 35 28
-1.958042 3.636364 -12.405766 73 32 28
-1.930265 3.626220 -12.371161 64 24 23
-1.907950 3.626220 -12.371161 60 22 24
-1.877778 3.611111 -12.319615 59 26 28
-1.850415 3.601108 -12.285489 56 29 31
-1.828255 3.601108 -12.285489 55 37 37
-2.701075 5.591398 -19.075533 49 65 74
-2.382643 5.128205 -17.495312 60 71 81
-1.529574 3.576341 -12.200994 76 35 37
-1.497268 3.551913 -12.117655 77 32 32
-1.475410 3.551913 -12.117655 75 30 28
-1.469613 3.591160 -12.251552 79 36 33
-1.445517 3.586207 -12.234653 85 46 41
-1.453521 3.661972 -12.493131 82 46 40
-1.320388 3.606103 -12.302528 65 33 30
-1.273469 3.537415 -12.068194 65 32 26
-1.251701 3.537415 -12.068194 63 28 22
-1.668817 5.591398 -19.075533 67 35 20
-1.576764 5.394191 -18.402744 67 35 20
-1.554585 5.676856 -19.367081 70 36 24
-1.519651 5.676856 -19.367081 71 34 26
6.480712 7.715134 -26.320841 122 140 165
6.528190 7.715134 -26.320841 124 143 168
6.575668 7.715134 -26.320841 123 142 167
6.413793 7.471264 -25.488859 123 140 165
5.962865 6.896552 -23.528177 125 138 163
5.835052 6.701031 -22.861141 127 135 162
5.743073 6.549119 -22.342878 127 134 159
5.627451 6.372549 -21.740498 124 132 154
5.351852 6.018518 -20.532692 119 128 147
5.376443 6.004619 -20.485273 109 120 134
5.413395 6.004619 -20.485273 92 103 114
4.763705 4.914934 -16.767719 88 55 60
4.670350 4.788214 -16.335402 91 53 56
4.614828 4.701627 -16.040005 87 46 46
4.435233 4.490501 -15.319729 81 35 33
4.455173 4.482759 -15.293316 84 36 31
4.444445 4.444445 -15.162603 101 52 44
4.389262 4.362416 -14.882757 118 68 58
4.336079 4.283361 -14.613052 122 70 58
3.750708 3.682719 -12.563913 117 69 60
3.694868 3.606103 -12.302528 107 71 75
3.641304 3.532609 -12.051798 94 75 94
3.589880 3.462051 -11.811083 95 99 125
3.563732 3.416557 -11.655878 103 123 150
3.556715 3.389831 -11.564697 114 133 156
3.577575 3.389831 -11.564697 138 143 160
5.260474 4.735883 -16.156872 109 64 72
5.241877 4.693141 -16.011053 108 68 83
5.242370 4.667863 -15.924817 111 73 89
5.252236 4.651163 -15.867841 114 74 89
5.271429 4.642857 -15.839505 107 66 77
5.271759 4.618117 -15.755103 100 60 66
5.198606 4.529617 -15.453176 104 64 65
5.199307 4.506066 -15.372830 111 70 68
5.060403 4.362416 -14.882757 113 71 67
5.087248 4.362416 -14.882757 113 70 65
5.076672 4.241436 -14.470021 107 67 51
5.086179 4.227642 -14.422964 108 72 53
5.112195 4.227642 -14.422964 110 76 58
5.080386 4.180064 -14.260648 110 78 63
5.049284 4.133545 -14.101944 113 81 65
4.987500 4.062500 -13.859568 120 87 71
5.108280 4.140127 -14.124400 122 88 72
5.158400 4.160000 -14.192197 116 81 64
5.184000 4.160000 -14.192197 115 79 63
5.210776 4.120444 -14.057247 118 75 59
5.211357 4.100946 -13.990730 124 80 63
5.220126 4.088050 -13.946734 122 76 60
5.237049 4.081633 -13.924840 119 72 58
5.229329 4.056162 -13.837946 119 73 60
5.011905 3.869048 -13.199588 114 69 59
5.005917 3.846154 -13.121484 104 62 54
5.022157 3.840473 -13.102102 102 62 56
5.004354 3.773585 -12.873909 116 81 73
5.005780 3.757226 -12.818097 117 84 73
5.007194 3.741007 -12.762767 112 78 66
3.850220 2.863436 -9.768858 111 75 64
3.838251 2.841530 -9.694123 116 77 68
3.818182 2.813853 -9.599700 117 72 66
6.018237 3.951368 -13.480431 130 72 71
6.006042 3.927492 -13.398977 129 69 68
5.827737 3.795620 -12.949084 138 78 77
5.791907 3.757226 -12.818097 138 78 81
5.756795 3.719599 -12.689733 138 80 87
5.738636 3.693182 -12.599607 140 85 95
5.761364 3.693182 -12.599607 137 81 92
5.775887 3.687943 -12.581735 122 64 76
5.976608 3.801170 -12.968017 125 63 70
5.965117 3.779070 -12.892621 121 54 59
5.962373 3.762663 -12.836647 124 55 58
5.951079 3.741007 -12.762767 131 62 65
5.956958 3.730273 -12.726145 137 69 73
5.979914 3.730273 -12.726145 133 70 77
6.302670 3.857567 -13.160420 131 115 133
6.197674 3.779070 -12.892621 136 132 154
5.944445 3.611111 -12.319615 135 137 166
5.966667 3.611111 -12.319615 133 139 170
5.988889 3.611111 -12.319615 127 133 168
5.953232 3.576341 -12.200994 120 127 161
5.807487 3.475936 -11.858453 110 124 149
5.805593 3.462051 -11.811083 102 120 137
5.811421 3.452855 -11.779712 100 119 131
5.741177 3.398693 -11.594933 92 109 119
5.762092 3.398693 -11.594933 85 98 109
5.775457 3.394256 -11.579795 82 90 99
5.803922 3.398693 -11.594933 85 85 91
5.832461 3.403141 -11.610108 91 82 87
5.915344 3.439153 -11.732967 99 78 83
6.190345 3.586207 -12.234653 105 73 75
7.221350 4.081633 -13.924840 124 75 66
7.112481 4.006163 -13.667370 127 63 54
7.137134 4.006163 -13.667370 129 60 52
7.228616 4.043546 -13.794904 123 60 50
7.333333 4.088050 -13.946734 114 61 47
7.826087 4.347826 -14.832982 105 71 59
7.892437 4.369748 -14.907770 109 104 107
8.110155 4.475043 -15.266994 123 124 139
8.179931 4.498270 -15.346233 146 114 126
8.207612 4.498270 -15.346233 109 51 58
-10.490566 8.125786 -27.893469 88 77 52
-10.310559 8.024845 -27.546967 78 73 52
-9.833333 7.690476 -26.399176 64 62 50
-9.756677 7.667656 -26.320841 63 61 59
-9.651917 7.622419 -26.165554 79 75 79
-9.520468 7.555555 -25.936033 88 78 85
-9.418605 7.511628 -25.785242 83 61 67
-9.264368 7.425287 -25.488859 73 42 43
-9.191978 7.404011 -25.415825 70 35 30
-8.991549 7.278873 -24.986261 72 37 29
-8.946479 7.278873 -24.986261 71 44 35
-7.959698 6.508816 -22.342878 69 49 40
-7.687042 6.317848 -21.687342 67 42 30
-7.537349 6.226506 -21.373791 74 39 24
-7.427207 6.167065 -21.169744 77 38 24
-7.336493 6.123223 -21.019249 76 37 26
-7.096774 5.953917 -20.438072 77 41 31
-6.854586 5.780761 -19.843676 75 44 36
-6.640523 5.629630 -19.324886 65 37 31
-6.548596 5.580994 -19.157932 49 24 19
-6.500000 5.568965 -19.116644 48 25 28
-6.465517 5.568965 -19.116644 53 34 44
-6.403433 5.545064 -19.034599 58 45 54
-6.314894 5.497872 -18.872602 70 60 66
-10.179311 8.910345 -30.586632 75 63 65
-10.229965 9.003485 -30.906353 65 45 45
-10.174216 9.003485 -30.906353 63 33 31
-10.225352 9.098592 -31.232828 71 31 27
-10.425993 9.328520 -32.022106 74 34 27
-5.567252 5.037037 -17.290688 86 45 40
-5.536062 5.037037 -17.290688 86 44 43
-5.515625 5.046875 -17.324459 88 46 46
-5.495108 5.056751 -17.358362 84 41 42
-6.854271 6.492462 -22.286741 71 43 45
-6.780000 6.460000 -22.175308 74 55 61
-6.740000 6.460000 -22.175308 77 54 58
-6.633663 6.396039 -21.955750 67 31 31
-6.545455 6.348894 -21.793915 75 36 33
-6.045662 5.899543 -20.251423 81 45 40
-5.875000 5.767857 -19.799381 70 39 34
-5.839286 5.767857 -19.799381 63 35 32
-5.803571 5.767857 -19.799381 60 38 38
-5.742222 5.742222 -19.711384 53 39 45
-5.681416 5.716814 -19.624166 67 62 70
-5.621145 5.691630 -19.537716 84 84 91
-5.513043 5.617391 -19.282877 92 91 99
-5.431035 5.568965 -19.116644 92 82 92
-5.396552 5.568965 -19.116644 83 65 70
-5.385282 5.593073 -19.199400 79 52 51
-5.350649 5.593073 -19.199400 85 56 48
-5.293103 5.568965 -19.116644 87 64 47
-5.258621 5.568965 -19.116644 89 68 47
