ply
        format ascii 1.0
        element vertex 93292
        property float x
        property float y
        property float z
        property uchar red
        property uchar green
        property uchar blue
        end_header
17.781250 2.593750 -34.648918 8 7 3
17.843750 2.593750 -34.648918 7 6 2
16.791208 2.432235 -32.491295 7 6 4
15.972222 2.305556 -30.799038 7 6 4
15.917241 2.289655 -30.586632 7 6 4
15.972414 2.289655 -30.586632 7 6 4
18.156250 2.593750 -34.648918 7 6 4
18.218750 2.593750 -34.648918 7 6 4
17.333334 2.459259 -32.852306 7 6 4
16.419580 2.321678 -31.014416 7 6 4
16.475525 2.321678 -31.014416 7 6 4
18.468750 2.593750 -34.648918 7 6 4
18.531250 2.593750 -34.648918 7 6 4
18.593750 2.593750 -34.648918 7 6 4
18.656250 2.593750 -34.648918 8 7 5
-6.087286 1.229602 -16.831352 41 31 21
-6.056926 1.229602 -16.831352 41 31 21
-5.641208 1.150977 -15.755103 41 31 22
-5.505227 1.128920 -15.453176 41 31 22
-4.974684 1.025316 -14.035005 42 32 23
-5.430555 1.125000 -15.399519 42 32 23
-5.421603 1.128920 -15.453176 42 32 23
-5.356401 1.121107 -15.346233 42 32 23
-5.175676 1.094595 -14.983316 40 30 21
-5.264249 1.119171 -15.319729 39 29 20
-5.209622 1.113402 -15.240761 38 28 19
-5.111865 1.098305 -15.034107 37 27 18
-5.154639 1.113402 -15.240761 35 25 16
-5.144827 1.117241 -15.293316 33 24 17
-4.053872 1.090909 -14.932867 77 79 76
-4.026936 1.090909 -14.932867 79 80 75
-3.940299 1.074627 -14.709989 80 78 73
-3.913764 1.074627 -14.709989 80 77 72
-3.939496 1.089076 -14.907770 51 47 38
-3.919192 1.090909 -14.932867 45 38 30
-3.892256 1.090909 -14.932867 43 36 26
-3.565217 1.006211 -13.773483 44 36 25
-3.507692 0.996923 -13.646343 42 34 23
-3.477726 0.995392 -13.625381 40 32 21
-3.447853 0.993865 -13.604484 38 30 19
-3.423313 0.993865 -13.604484 37 28 19
-3.352496 0.980333 -13.419249 38 29 20
-3.273809 0.964286 -13.199588 40 32 21
-3.207048 0.951542 -13.025144 41 33 22
-3.128427 0.935065 -12.799601 42 34 23
-3.883636 1.178182 -16.127497 43 35 24
-3.854545 1.178182 -16.127497 43 35 24
-3.784173 1.165468 -15.953459 45 37 26
-3.715302 1.153025 -15.783137 45 37 26
-3.686833 1.153025 -15.783137 45 37 26
-3.626102 1.142857 -15.643956 45 37 26
-3.349754 1.064039 -14.565063 45 37 26
-3.296417 1.055375 -14.446454 45 37 26
-3.070336 0.990826 -13.562880 44 35 26
-3.000000 0.975904 -13.358619 44 35 26
-3.236111 1.125000 -15.399519 43 35 24
-2.215569 0.970060 -13.278627 10 6 3
-2.188341 0.968610 -13.258779 9 7 4
-2.167665 0.970060 -13.278627 8 7 5
-2.137313 0.967164 -13.238990 8 7 5
-2.113433 0.967164 -13.238990 8 7 5
-2.083333 0.964286 -13.199588 8 7 5
-2.059524 0.964286 -13.199588 8 7 5
-1.991058 0.965723 -13.219259 8 7 5
-1.952663 0.958580 -13.121484 8 7 5
-1.923304 0.955752 -13.082777 8 7 5
-1.899705 0.955752 -13.082777 8 7 5
-1.901345 0.968610 -13.258779 8 7 5
-1.871833 0.965723 -13.219259 8 7 5
-1.839763 0.961424 -13.160420 8 7 5
-1.816024 0.961424 -13.160420 8 7 5
-1.702381 0.964286 -13.199588 9 8 6
-1.678571 0.964286 -13.199588 9 8 6
-1.622642 1.018868 -13.946734 9 8 6
-1.580093 1.007776 -13.794904 9 8 6
-1.529052 0.990826 -13.562880 8 7 5
-1.500000 0.987805 -13.521529 8 7 5
-1.475610 0.987805 -13.521529 8 7 5
-1.457887 0.992343 -13.583650 8 7 5
-1.433384 0.992343 -13.583650 8 7 5
-1.389728 0.978852 -13.398977 8 7 5
-1.347243 0.965723 -13.219259 8 7 5
-1.323398 0.965723 -13.219259 8 7 5
-1.397436 1.038462 -14.214941 8 7 5
-1.365231 1.033493 -14.146927 7 6 4
-0.637168 1.146903 -15.699333 9 8 6
-0.599303 1.128920 -15.453176 9 8 6
-0.569444 1.125000 -15.399519 9 8 6
-0.539792 1.121107 -15.346233 9 8 6
-0.499157 1.092749 -14.958049 9 8 6
-0.463576 1.072848 -14.685635 9 8 6
-0.426494 1.046850 -14.329762 9 8 6
-0.423208 1.105802 -15.136728 9 8 6
-0.404181 1.128920 -15.453176 9 8 6
-0.192000 1.036800 -14.192197 9 8 6
-0.166134 1.035144 -14.169526 8 7 5
-0.141707 1.043478 -14.283612 7 6 4
-0.115942 1.043478 -14.283612 7 6 4
-0.090177 1.043478 -14.283612 7 6 4
-0.064103 1.038462 -14.214941 7 6 4
-0.038400 1.036800 -14.192197 8 7 5
-0.012780 1.035144 -14.169526 8 7 5
1.600912 0.369441 -5.057083 7 6 4
1.655014 0.371347 -5.083165 6 5 3
1.663230 0.371134 -5.080254 6 5 3
1.672394 0.371134 -5.080254 6 5 3
1.681558 0.371134 -5.080254 7 6 4
1.691691 0.371347 -5.083165 7 6 4
1.701835 0.371560 -5.086080 7 6 4
1.811409 0.377183 -5.163052 8 4 1
1.803922 0.373702 -5.115411 8 4 1
1.802752 0.371560 -5.086080 8 4 1
1.801596 0.369441 -5.057083 8 4 1
1.810718 0.369441 -5.057083 8 4 1
1.839769 0.373487 -5.112463 6 5 1
1.847926 0.373272 -5.109518 6 5 1
1.857143 0.373272 -5.109518 6 5 1
12.906250 2.531250 -34.648918 7 6 2
12.968750 2.531250 -34.648918 8 7 3
13.031250 2.531250 -34.648918 7 6 2
13.093750 2.531250 -34.648918 7 6 2
13.156250 2.531250 -34.648918 7 6 2
13.343750 2.531250 -34.648918 7 6 2
13.406250 2.531250 -34.648918 8 7 3
13.468750 2.531250 -34.648918 7 6 4
13.531250 2.531250 -34.648918 7 6 4
13.313208 2.445283 -33.472164 7 6 2
11.469255 2.097087 -28.705900 7 6 2
10.787879 1.963636 -26.879160 7 6 2
10.674627 1.934328 -26.477980 7 6 2
10.722388 1.934328 -26.477980 7 6 2
14.093750 2.531250 -34.648918 6 5 3
14.156250 2.531250 -34.648918 6 5 3
14.218750 2.531250 -34.648918 6 5 3
14.281250 2.531250 -34.648918 6 5 3
14.343750 2.531250 -34.648918 6 5 3
14.406250 2.531250 -34.648918 6 5 3
14.468750 2.531250 -34.648918 6 5 3
13.144876 2.289753 -31.343191 6 5 3
12.664407 2.196610 -30.068214 6 5 3
12.718644 2.196610 -30.068214 6 5 3
14.718750 2.531250 -34.648918 6 5 3
14.781250 2.531250 -34.648918 6 5 3
14.843750 2.531250 -34.648918 6 5 3
14.906250 2.531250 -34.648918 6 5 3
14.968750 2.531250 -34.648918 6 5 3
15.031250 2.531250 -34.648918 6 5 3
15.093750 2.531250 -34.648918 6 5 3
14.586466 2.436090 -33.346329 6 5 3
15.406250 2.531250 -34.648918 7 6 4
15.468750 2.531250 -34.648918 7 6 4
15.531250 2.531250 -34.648918 7 6 4
14.951311 2.426966 -33.221436 7 6 4
14.013986 2.265734 -31.014416 7 6 4
13.193442 2.124590 -29.082371 7 6 4
13.074433 2.097087 -28.705900 8 7 5
12.557276 2.006192 -27.461681 8 7 5
15.968750 2.531250 -34.648918 8 7 5
16.031250 2.531250 -34.648918 8 7 5
16.093750 2.531250 -34.648918 8 7 5
16.218750 2.531250 -34.648918 8 7 5
16.281250 2.531250 -34.648918 8 7 5
16.343750 2.531250 -34.648918 8 7 5
16.406250 2.531250 -34.648918 8 7 5
16.468750 2.531250 -34.648918 8 7 5
16.531250 2.531250 -34.648918 8 7 5
16.593750 2.531250 -34.648918 8 7 5
16.656250 2.531250 -34.648918 8 7 5
15.231317 2.306050 -31.566275 8 7 5
12.823880 1.934328 -26.477980 8 7 5
12.833333 1.928571 -26.399176 8 7 5
17.218750 2.531250 -34.648918 7 6 4
17.281250 2.531250 -34.648918 7 6 4
17.343750 2.531250 -34.648918 7 6 4
17.406250 2.531250 -34.648918 8 7 3
17.468750 2.531250 -34.648918 8 7 3
16.684015 2.408922 -32.974434 8 7 3
16.743494 2.408922 -32.974434 8 7 3
17.656250 2.531250 -34.648918 8 7 3
17.718750 2.531250 -34.648918 8 7 3
17.781250 2.531250 -34.648918 8 7 3
17.843750 2.531250 -34.648918 7 6 2
16.852942 2.382353 -32.610748 7 6 4
15.972222 2.250000 -30.799038 7 6 4
15.808219 2.219178 -30.377134 7 6 4
15.972414 2.234483 -30.586632 7 6 4
18.156250 2.531250 -34.648918 7 6 4
18.218750 2.531250 -34.648918 7 6 4
17.462687 2.417910 -33.097473 7 6 4
16.419580 2.265734 -31.014416 7 6 4
16.475525 2.265734 -31.014416 7 6 4
18.468750 2.531250 -34.648918 7 6 4
18.531250 2.531250 -34.648918 7 6 4
18.593750 2.531250 -34.648918 7 6 4
18.656250 2.531250 -34.648918 7 6 4
-6.117647 1.199241 -16.831352 39 31 20
-6.087286 1.199241 -16.831352 40 30 20
-5.000000 1.000000 -14.035005 41 31 22
-4.951181 0.995276 -13.968698 41 31 22
-4.957211 1.001585 -14.057247 42 32 23
-5.384083 1.093426 -15.346233 42 32 23
-5.356401 1.093426 -15.346233 42 32 23
-5.319516 1.091537 -15.319729 41 31 22
-5.175676 1.067568 -14.983316 39 29 20
-5.148649 1.067568 -14.983316 38 28 19
-4.995058 1.041186 -14.613052 37 27 18
-4.952381 1.037767 -14.565063 35 26 17
-4.983389 1.049834 -14.734424 33 25 16
-4.956810 1.049834 -14.734424 32 25 17
-3.896440 1.022654 -14.352950 79 81 78
-3.940692 1.041186 -14.613052 80 81 76
-3.844660 1.022654 -14.352950 81 80 75
-3.812601 1.021002 -14.329762 81 78 73
-3.780645 1.019355 -14.306650 51 47 38
-3.841584 1.042904 -14.637167 43 36 28
-3.705128 1.012820 -14.214941 41 34 24
-3.638669 1.001585 -14.057247 42 34 23
-3.540373 0.981366 -13.773483 41 33 22
-3.504644 0.978328 -13.730841 41 33 22
-3.453149 0.970814 -13.625381 40 32 21
-3.423313 0.969325 -13.604484 39 30 21
-3.307463 0.943284 -13.238990 39 30 21
-3.230543 0.928047 -13.025144 40 32 21
-3.151515 0.911977 -12.799601 41 33 22
-3.092725 0.901569 -12.653528 43 35 24
-3.069900 0.901569 -12.653528 43 35 24
-3.890710 1.151184 -16.156872 43 35 24
-3.812950 1.136691 -15.953459 43 35 24
-3.784173 1.136691 -15.953459 44 36 25
-3.689046 1.116608 -15.671596 45 37 26
-3.622378 1.104895 -15.507208 45 37 26
-3.496599 1.074830 -15.085243 46 38 27
-3.349754 1.037767 -14.565063 45 37 26
-3.147745 0.982893 -13.794904 45 37 26
-3.042424 0.957576 -13.439580 44 35 26
-3.000000 0.951807 -13.358619 43 34 25
-2.993939 0.957576 -13.439580 43 37 25
-3.316413 1.069374 -15.008669 43 37 25
-3.289340 1.069374 -15.008669 44 38 26
-3.159322 1.071186 -15.034107 43 35 24
-2.215569 0.946108 -13.278627 10 6 3
-2.188341 0.944694 -13.258779 9 7 4
-2.167665 0.946108 -13.278627 8 7 5
-2.140508 0.944694 -13.258779 8 7 5
-2.113433 0.943284 -13.238990 8 7 5
-2.083333 0.940476 -13.199588 8 7 5
-2.059524 0.940476 -13.199588 8 7 5
-2.050975 0.947526 -13.298535 8 7 5
-2.026987 0.947526 -13.298535 8 7 5
-1.991058 0.941878 -13.219259 8 7 5
-1.958457 0.937685 -13.160420 8 7 5
-1.928994 0.934911 -13.121484 8 7 5
-1.910979 0.937685 -13.160420 8 7 5
-1.895678 0.941878 -13.219259 8 7 5
-1.871833 0.941878 -13.219259 8 7 5
-1.837037 0.936296 -13.140924 8 7 5
-1.813333 0.936296 -13.140924 7 6 4
-1.844275 0.964885 -13.542172 8 7 5
-1.702381 0.940476 -13.199588 9 8 6
-1.678571 0.940476 -13.199588 8 7 5
-1.622642 0.993711 -13.946734 9 8 6
-1.580093 0.982893 -13.794904 9 8 6
-1.529052 0.966361 -13.562880 8 7 5
-1.500000 0.963415 -13.521529 8 7 5
-1.475610 0.963415 -13.521529 8 7 5
-1.460123 0.969325 -13.604484 8 7 5
-1.435583 0.969325 -13.604484 8 7 5
-1.396055 0.959029 -13.459974 8 7 5
-1.357357 0.948949 -13.318503 8 7 5
-1.333333 0.948949 -13.318503 8 7 5
-1.397436 1.012820 -14.214941 8 7 5
-1.365231 1.007975 -14.146927 7 6 4
-0.625000 1.097222 -15.399519 8 7 5
-0.597222 1.097222 -15.399519 8 7 5
-0.568458 1.095321 -15.372830 9 8 6
-0.537005 1.087780 -15.266994 10 9 7
-0.500000 1.067568 -14.983316 9 8 6
-0.472175 1.065767 -14.958049 9 8 6
-0.445946 1.067568 -14.983316 9 8 6
-0.426850 1.087780 -15.266994 9 8 6
-0.402080 1.095321 -15.372830 9 8 6
-0.038400 1.011200 -14.192197 8 7 5
-0.012800 1.011200 -14.192197 8 7 5
1.598158 0.363846 -5.106576 7 6 4
1.592698 0.360525 -5.059968 7 6 4
1.600000 0.360114 -5.054201 7 6 4
1.609117 0.360114 -5.054201 6 5 3
1.646789 0.362385 -5.086080 6 5 3
1.655014 0.362178 -5.083165 6 5 3
1.663230 0.361970 -5.080254 6 5 3
1.672394 0.361970 -5.080254 7 6 4
1.681558 0.361970 -5.080254 7 6 4
1.690722 0.361970 -5.080254 7 6 4
1.701835 0.362385 -5.086080 7 6 4
1.711009 0.362385 -5.086080 7 6 4
1.720183 0.362385 -5.086080 7 6 4
1.811409 0.367870 -5.163052 8 4 1
1.802882 0.364265 -5.112463 8 4 1
1.802752 0.362385 -5.086080 8 4 1
1.804683 0.360937 -5.065747 8 4 1
1.813821 0.360937 -5.065747 8 4 1
1.839769 0.364265 -5.112463 6 5 1
1.844738 0.363427 -5.100703 6 5 1
1.850746 0.362801 -5.091919 6 5 1
12.906250 2.468750 -34.648918 6 5 1
12.968750 2.468750 -34.648918 7 6 2
13.031250 2.468750 -34.648918 7 6 2
13.093750 2.468750 -34.648918 7 6 2
13.156250 2.468750 -34.648918 7 6 2
13.343750 2.468750 -34.648918 7 6 2
13.406250 2.468750 -34.648918 7 6 2
13.468750 2.468750 -34.648918 7 6 4
13.531250 2.468750 -34.648918 7 6 4
13.781250 2.468750 -34.648918 7 6 2
11.432258 2.038710 -28.613300 7 6 2
10.820668 1.920973 -26.960861 7 6 2
10.674627 1.886567 -26.477980 7 6 2
10.722388 1.886567 -26.477980 7 6 2
14.093750 2.468750 -34.648918 6 5 3
14.156250 2.468750 -34.648918 6 5 3
14.218750 2.468750 -34.648918 6 5 3
14.281250 2.468750 -34.648918 6 5 3
14.343750 2.468750 -34.648918 6 5 3
14.406250 2.468750 -34.648918 6 5 3
14.468750 2.468750 -34.648918 6 5 3
13.932584 2.367041 -33.221436 6 5 3
12.330033 2.085809 -29.274334 6 5 3
12.382838 2.085809 -29.274334 6 5 3
14.718750 2.468750 -34.648918 6 5 3
14.781250 2.468750 -34.648918 6 5 3
14.843750 2.468750 -34.648918 6 5 3
14.906250 2.468750 -34.648918 6 5 3
14.968750 2.468750 -34.648918 6 5 3
15.031250 2.468750 -34.648918 6 5 3
14.526316 2.375940 -33.346329 6 5 3
14.477612 2.358209 -33.097473 6 5 3
12.690554 2.058632 -28.892908 6 5 3
15.343750 2.468750 -34.648918 7 6 4
15.406250 2.468750 -34.648918 7 6 4
15.468750 2.468750 -34.648918 7 6 4
15.531250 2.468750 -34.648918 7 6 4
15.007519 2.375940 -33.346329 7 6 4
14.013986 2.209790 -31.014416 7 6 4
13.150327 2.065360 -28.987329 7 6 4
13.074433 2.045307 -28.705900 8 7 5
12.557276 1.956656 -27.461681 8 7 5
15.968750 2.468750 -34.648918 8 7 5
16.031250 2.468750 -34.648918 8 7 5
16.093750 2.468750 -34.648918 8 7 5
16.281250 2.468750 -34.648918 8 7 5
16.343750 2.468750 -34.648918 8 7 5
16.406250 2.468750 -34.648918 8 7 5
16.468750 2.468750 -34.648918 8 7 5
16.531250 2.468750 -34.648918 8 7 5
16.593750 2.468750 -34.648918 8 7 5
16.656250 2.468750 -34.648918 8 7 5
13.587301 2.006349 -28.159121 8 7 5
12.785714 1.880952 -26.399176 8 7 5
12.833333 1.880952 -26.399176 8 7 5
17.218750 2.468750 -34.648918 7 6 4
17.281250 2.468750 -34.648918 7 6 4
17.343750 2.468750 -34.648918 7 6 4
17.406250 2.468750 -34.648918 8 7 3
17.468750 2.468750 -34.648918 8 7 3
16.684015 2.349442 -32.974434 8 7 3
16.743494 2.349442 -32.974434 8 7 3
17.656250 2.468750 -34.648918 8 7 3
17.718750 2.468750 -34.648918 8 7 3
17.781250 2.468750 -34.648918 7 6 2
17.843750 2.468750 -34.648918 7 6 2
16.852942 2.323529 -32.610748 7 6 4
15.753425 2.164384 -30.377134 7 6 4
15.594595 2.135135 -29.966633 7 6 4
15.863013 2.164384 -30.377134 7 6 4
18.156250 2.468750 -34.648918 7 6 4
18.218750 2.468750 -34.648918 7 6 4
17.528090 2.367041 -33.221436 7 6 4
16.362370 2.202091 -30.906353 7 6 4
16.418118 2.202091 -30.906353 7 6 4
18.468750 2.468750 -34.648918 7 6 4
18.531250 2.468750 -34.648918 7 6 4
18.593750 2.468750 -34.648918 7 6 4
18.656250 2.468750 -34.648918 7 6 4
-5.031847 0.980892 -14.124400 40 30 21
-4.990476 0.977778 -14.079560 40 30 21
-4.988836 0.982456 -14.146927 41 31 22
-4.971246 0.984026 -14.169526 41 31 22
-4.969502 0.988764 -14.237758 41 31 22
-5.150502 1.030100 -14.832982 40 30 21
-5.123746 1.030100 -14.832982 38 28 19
-5.021417 1.014827 -14.613052 37 27 18
-4.938111 1.003257 -14.446454 36 26 17
-4.912052 1.003257 -14.446454 34 25 16
-4.885993 1.003257 -14.446454 32 24 15
-4.859935 1.003257 -14.446454 31 24 16
-3.870550 0.996764 -14.352950 79 80 75
-3.838449 0.995153 -14.329762 82 80 75
-3.800322 0.991948 -14.283612 82 79 73
-3.756410 0.987179 -14.214941 50 46 37
-3.730769 0.987179 -14.214941 41 34 26
-3.693291 0.984026 -14.169526 40 31 22
-3.638669 0.976228 -14.057247 41 31 21
-3.590551 0.970079 -13.968698 40 30 20
-3.565354 0.970079 -13.968698 42 32 20
-3.512500 0.962500 -13.859568 42 32 20
-3.455108 0.953560 -13.730841 41 33 22
-3.388379 0.941896 -13.562880 40 32 21
-3.268945 0.915305 -13.179975 41 33 22
-3.188321 0.899270 -12.949084 42 34 23
-3.128427 0.888889 -12.799601 43 35 24
-3.470968 0.993548 -14.306650 44 36 25
-3.490196 1.006536 -14.493665 44 36 25
-3.464052 1.006536 -14.493665 44 36 25
-3.678322 1.076923 -15.507208 44 36 25
-3.612457 1.065744 -15.346233 45 37 26
-3.572414 1.062069 -15.293316 45 37 26
-3.472973 1.040541 -14.983316 46 38 27
-3.349754 1.011494 -14.565063 45 37 26
-3.296417 1.003257 -14.446454 45 37 26
-3.122862 0.958009 -13.794904 44 36 25
-3.364865 1.040541 -14.983316 44 36 25
-3.309883 1.031826 -14.857827 44 36 25
-3.316413 1.042301 -15.008669 44 36 25
-3.278246 1.038786 -14.958049 45 37 26
-3.251265 1.038786 -14.958049 46 38 27
-3.159322 1.044068 -15.034107 43 35 24
-3.186207 1.062069 -15.293316 44 36 25
-3.253996 1.094139 -15.755103 44 36 25
-3.242857 1.100000 -15.839505 44 36 25
-3.041667 1.069444 -15.399519 41 31 21
-2.998273 1.063903 -15.319729 40 30 20
-2.925170 1.047619 -15.085243 40 30 18
-2.266667 0.933333 -13.439580 8 5 2
-2.222222 0.924925 -13.318503 10 6 3
-2.198198 0.924925 -13.318503 9 7 4
-2.190620 0.931921 -13.419249 8 7 5
-2.169697 0.933333 -13.439580 8 7 5
-2.132530 0.927711 -13.358619 8 7 5
-2.083333 0.916667 -13.199588 8 7 5
-2.059524 0.916667 -13.199588 8 7 5
-2.050975 0.923538 -13.298535 8 7 5
-2.026987 0.923538 -13.298535 8 7 5
-1.991058 0.918033 -13.219259 8 7 5
-1.964286 0.916667 -13.199588 8 7 5
-1.934718 0.913947 -13.160420 8 7 5
-1.916667 0.916667 -13.199588 7 6 4
-1.912782 0.926316 -13.338531 7 6 4
-1.880239 0.922156 -13.278627 7 6 4
-1.845238 0.916667 -13.199588 7 6 4
-1.821429 0.916667 -13.199588 7 6 4
-1.844275 0.940458 -13.542172 8 7 5
-1.762918 0.936170 -13.480431 8 7 5
-1.707463 0.919403 -13.238990 8 7 5
-1.683582 0.919403 -13.238990 8 7 5
-1.663492 0.977778 -14.079560 9 8 6
-1.607477 0.959502 -13.816391 9 8 6
-1.580093 0.958009 -13.794904 9 8 6
-1.529052 0.941896 -13.562880 8 7 5
-1.500000 0.939024 -13.521529 8 7 5
-1.475610 0.939024 -13.521529 8 7 5
-1.475969 0.955039 -13.752129 9 8 6
-1.442219 0.949153 -13.667370 8 7 5
-1.402439 0.939024 -13.521529 8 7 5
-1.371775 0.934750 -13.459974 8 7 5
-1.347496 0.934750 -13.459974 8 7 5
-1.397436 0.987179 -14.214941 8 7 5
-1.371795 0.987179 -14.214941 7 6 4
-1.346154 0.987179 -14.214941 7 6 4
-0.681739 1.071304 -15.426301 9 8 6
-0.653913 1.071304 -15.426301 9 8 6
-0.625000 1.069444 -15.399519 8 7 5
-0.597222 1.069444 -15.399519 8 7 5
-0.569444 1.069444 -15.399519 8 7 5
-0.539792 1.065744 -15.346233 9 8 6
-0.505119 1.051195 -15.136728 9 8 6
-0.477002 1.049404 -15.110942 9 8 6
-0.456747 1.065744 -15.346233 9 8 6
-0.429809 1.067591 -15.372830 9 8 6
-0.402778 1.069444 -15.399519 9 8 6
-0.376963 1.075044 -15.480145 8 7 5
1.591647 0.357309 -5.145083 7 6 4
1.597222 0.356481 -5.133173 7 6 4
1.591743 0.353211 -5.086080 7 6 4
1.592698 0.351398 -5.059968 7 6 4
1.599089 0.350797 -5.051323 7 6 4
1.608200 0.350797 -5.051323 7 6 4
1.626575 0.352806 -5.080254 7 6 4
1.645845 0.353009 -5.083165 6 5 3
1.655014 0.353009 -5.083165 7 6 4
1.663230 0.352806 -5.080254 7 6 4
1.671437 0.352604 -5.077346 7 6 4
1.679634 0.352403 -5.074441 7 6 4
1.689754 0.352604 -5.077346 7 6 4
1.699885 0.352806 -5.080254 7 6 4
1.711009 0.353211 -5.086080 7 6 4
1.720183 0.353211 -5.086080 7 6 4
1.760920 0.354023 -5.097772 8 4 1
1.769098 0.353820 -5.094844 8 4 1
1.793660 0.355043 -5.112463 8 4 1
1.801843 0.354839 -5.109518 8 4 1
1.802752 0.353211 -5.086080 8 4 1
1.804683 0.351799 -5.065747 8 4 1
1.813821 0.351799 -5.065747 8 4 1
1.832377 0.353617 -5.091919 8 4 1
1.840505 0.353414 -5.088998 8 4 1
1.842286 0.352000 -5.068642 8 4 1
1.851429 0.352000 -5.068642 8 4 1
12.906250 2.406250 -34.648918 6 5 1
12.968750 2.406250 -34.648918 6 5 1
13.031250 2.406250 -34.648918 7 6 2
13.093750 2.406250 -34.648918 7 6 2
13.156250 2.406250 -34.648918 7 6 2
13.343750 2.406250 -34.648918 7 6 2
13.406250 2.406250 -34.648918 7 6 2
13.468750 2.406250 -34.648918 7 6 2
13.531250 2.406250 -34.648918 7 6 2
13.781250 2.406250 -34.648918 7 6 2
11.432258 1.987097 -28.613300 7 6 2
10.787879 1.866667 -26.879160 7 6 2
10.674627 1.838806 -26.477980 7 6 2
10.722388 1.838806 -26.477980 7 6 2
14.093750 2.406250 -34.648918 7 6 2
14.156250 2.406250 -34.648918 6 5 1
14.218750 2.406250 -34.648918 6 5 3
14.281250 2.406250 -34.648918 6 5 3
14.343750 2.406250 -34.648918 6 5 3
14.406250 2.406250 -34.648918 6 5 3
14.468750 2.406250 -34.648918 6 5 3
14.531250 2.406250 -34.648918 6 5 3
12.330033 2.033003 -29.274334 6 5 3
12.382838 2.033003 -29.274334 6 5 3
14.718750 2.406250 -34.648918 6 5 3
14.781250 2.406250 -34.648918 6 5 3
14.843750 2.406250 -34.648918 6 5 3
14.906250 2.406250 -34.648918 6 5 3
14.968750 2.406250 -34.648918 6 5 3
15.031250 2.406250 -34.648918 6 5 3
14.417911 2.298507 -33.097473 6 5 3
14.007220 2.223827 -32.022106 6 5 3
12.690554 2.006515 -28.892908 6 5 3
13.726315 2.161403 -31.123240 6 5 3
15.343750 2.406250 -34.648918 7 6 4
15.406250 2.406250 -34.648918 7 6 4
15.468750 2.406250 -34.648918 7 6 4
15.531250 2.406250 -34.648918 7 6 4
15.007519 2.315789 -33.346329 7 6 4
14.112676 2.169014 -31.232828 7 6 4
13.150327 2.013072 -28.987329 7 6 4
13.074433 1.993528 -28.705900 7 6 4
12.596273 1.913043 -27.546967 8 7 5
15.968750 2.406250 -34.648918 8 7 5
16.031250 2.406250 -34.648918 8 7 5
16.093750 2.406250 -34.648918 8 7 5
16.281250 2.406250 -34.648918 8 7 5
16.343750 2.406250 -34.648918 8 7 5
16.406250 2.406250 -34.648918 8 7 5
16.468750 2.406250 -34.648918 8 7 5
16.531250 2.406250 -34.648918 8 7 5
16.593750 2.406250 -34.648918 8 7 5
16.656250 2.406250 -34.648918 8 7 5
15.851851 2.281482 -32.852306 8 7 5
13.425000 1.925000 -27.719135 8 7 5
17.218750 2.406250 -34.648918 7 6 4
17.281250 2.406250 -34.648918 7 6 4
17.343750 2.406250 -34.648918 7 6 4
17.406250 2.406250 -34.648918 7 6 3
17.468750 2.406250 -34.648918 7 6 2
16.684015 2.289963 -32.974434 7 6 2
16.743494 2.289963 -32.974434 7 6 2
17.656250 2.406250 -34.648918 7 6 2
17.718750 2.406250 -34.648918 7 6 2
17.781250 2.406250 -34.648918 7 6 3
17.843750 2.406250 -34.648918 7 6 4
16.852942 2.264706 -32.610748 7 6 4
16.027874 2.146342 -30.906353 7 6 4
15.594595 2.081081 -29.966633 7 6 4
16.027681 2.131488 -30.692467 7 6 4
18.156250 2.406250 -34.648918 7 6 4
18.218750 2.406250 -34.648918 7 6 4
17.593985 2.315789 -33.346329 7 6 4
16.362370 2.146342 -30.906353 7 6 4
16.418118 2.146342 -30.906353 7 6 4
18.468750 2.406250 -34.648918 7 6 4
18.531250 2.406250 -34.648918 7 6 4
18.593750 2.406250 -34.648918 7 6 4
18.656250 2.406250 -34.648918 7 6 4
-5.047923 0.958466 -14.169526 37 27 18
-5.022364 0.958466 -14.169526 38 28 19
-4.996805 0.958466 -14.169526 39 29 20
-4.963317 0.956938 -14.146927 40 30 21
-4.969502 0.963082 -14.237758 40 30 21
-5.150502 1.003345 -14.832982 38 28 19
-5.123746 1.003345 -14.832982 37 27 18
-5.021417 0.988468 -14.613052 36 26 17
-4.930081 0.975610 -14.422964 35 25 16
-4.904065 0.975610 -14.422964 34 24 15
-4.885993 0.977199 -14.446454 33 24 15
-4.859935 0.977199 -14.446454 32 25 17
-3.844660 0.970874 -14.352950 81 80 75
-3.800322 0.966184 -14.283612 81 76 71
-3.756410 0.961538 -14.214941 48 44 35
-3.712919 0.956938 -14.146927 40 31 24
-3.687400 0.956938 -14.146927 38 29 20
-3.615748 0.944882 -13.968698 39 29 19
-3.590551 0.944882 -13.968698 39 29 19
-3.565354 0.944882 -13.968698 42 32 20
-3.529042 0.941915 -13.924840 44 34 22
-3.487500 0.937500 -13.859568 42 34 23
-3.451713 0.934579 -13.816391 42 34 23
-3.384615 0.923077 -13.646343 41 33 22
-3.500000 0.961538 -14.214941 42 34 23
-3.491143 0.966184 -14.283612 42 34 23
-3.482201 0.970874 -14.352950 43 35 24
-3.490196 0.980392 -14.493665 44 36 25
-3.419355 0.967742 -14.306650 45 37 26
-3.627586 1.034483 -15.293316 45 37 26
-3.551020 1.020408 -15.085243 45 37 26
-3.505922 1.015228 -15.008669 45 37 26
-3.461279 1.010101 -14.932867 45 37 26
-3.349754 0.985222 -14.565063 46 38 27
-3.323481 0.985222 -14.565063 45 37 26
-3.207668 0.958466 -14.169526 45 37 26
-3.364865 1.013514 -14.983316 45 37 26
-3.181965 0.966184 -14.283612 44 36 25
-3.305228 1.011804 -14.958049 44 36 25
-3.283784 1.013514 -14.983316 45 37 26
-3.256757 1.013514 -14.983316 45 37 26
-3.229730 1.013514 -14.983316 45 37 26
-3.186441 1.016949 -15.034107 43 35 24
-3.159322 1.016949 -15.034107 43 35 24
-3.137521 1.018676 -15.059631 44 36 25
-3.248227 1.063830 -15.727168 44 36 25
-3.225577 1.065719 -15.755103 44 36 25
-3.214286 1.071429 -15.839505 44 36 25
-3.124343 1.050788 -15.534366 44 34 24
-3.069444 1.041667 -15.399519 43 33 23
-3.010309 1.030928 -15.240761 42 32 22
-2.982818 1.030928 -15.240761 41 31 21
-2.925170 1.020408 -15.085243 42 32 20
-2.239032 0.907716 -13.419249 9 5 2
-2.214826 0.907716 -13.419249 8 6 3
-2.229921 0.944882 -13.968698 8 7 5
-2.121212 0.909091 -13.439580 8 7 5
-2.129231 0.923077 -13.646343 8 7 5
-2.104615 0.923077 -13.646343 8 7 5
-2.002999 0.899550 -13.298535 8 7 5
-1.967213 0.894188 -13.219259 8 7 5
-1.940476 0.892857 -13.199588 8 7 5
-1.948563 0.907716 -13.419249 7 6 4
-1.930197 0.910470 -13.459974 7 6 4
-1.900151 0.907716 -13.419249 6 5 3
-1.856287 0.898204 -13.278627 7 6 4
-1.912500 0.937500 -13.859568 7 6 4
-1.887500 0.937500 -13.859568 8 7 5
-1.862500 0.937500 -13.859568 8 7 5
-1.837500 0.937500 -13.859568 8 7 5
-1.804044 0.933126 -13.794904 8 7 5
-1.728097 0.906344 -13.398977 8 7 5
-1.703928 0.906344 -13.398977 8 7 5
-1.663492 0.952381 -14.079560 9 8 6
-1.612500 0.937500 -13.859568 9 8 6
-1.582554 0.934579 -13.816391 9 8 6
-1.536098 0.921659 -13.625381 8 7 5
-1.509202 0.920245 -13.604484 8 7 5
-1.512500 0.937500 -13.859568 8 7 5
-1.485179 0.936037 -13.837946 9 8 6
-1.451163 0.930233 -13.752129 9 8 6
-1.406728 0.917431 -13.562880 8 7 5
-1.375951 0.913242 -13.500948 8 7 5
-1.349544 0.911854 -13.480431 8 7 5
-1.331298 0.916031 -13.542172 8 7 5
-1.306870 0.916031 -13.542172 8 7 5
-0.680556 1.041667 -15.399519 8 7 5
-0.627178 1.045296 -15.453176 8 7 5
-0.598261 1.043478 -15.426301 8 7 5
-0.569444 1.041667 -15.399519 8 7 5
-0.541667 1.041667 -15.399519 9 8 6
-0.512998 1.039861 -15.372830 9 8 6
-0.458333 1.041667 -15.399519 9 8 6
-0.430556 1.041667 -15.399519 9 8 6
-0.403478 1.043478 -15.426301 8 7 5
-0.379613 1.054482 -15.588968 8 7 5
1.582367 0.348028 -5.145083 7 6 4
1.587963 0.347222 -5.133173 7 6 4
1.588946 0.345423 -5.106576 7 6 4
1.590831 0.343840 -5.083165 7 6 4
1.592698 0.342270 -5.059968 7 6 4
1.595455 0.340909 -5.039843 7 6 4
1.602724 0.340522 -5.034122 7 6 4
1.621930 0.342661 -5.065747 7 6 4
1.635739 0.343643 -5.080254 7 6 4
1.644903 0.343643 -5.080254 7 6 4
1.654066 0.343643 -5.080254 7 6 4
1.660377 0.343053 -5.071540 7 6 4
1.669525 0.343053 -5.071540 7 6 4
1.676756 0.342661 -5.065747 8 7 5
1.688787 0.343249 -5.074441 8 7 5
1.698912 0.343446 -5.077346 8 7 5
1.710029 0.343840 -5.083165 7 6 4
1.718213 0.343643 -5.080254 7 6 4
1.728367 0.343840 -5.083165 7 6 4
1.742529 0.344828 -5.097772 7 6 4
1.751724 0.344828 -5.097772 7 6 4
1.758898 0.344432 -5.091919 9 5 2
1.766055 0.344037 -5.086080 8 4 1
1.778288 0.344630 -5.094844 8 4 1
1.789534 0.345026 -5.100703 8 4 1
1.798735 0.345026 -5.100703 8 4 1
1.801719 0.343840 -5.083165 8 4 1
1.804683 0.342661 -5.065747 8 4 1
1.813821 0.342661 -5.065747 8 4 1
1.830275 0.344037 -5.086080 8 4 1
1.839450 0.344037 -5.086080 8 4 1
1.838084 0.342075 -5.057083 8 4 1
1.847206 0.342075 -5.057083 8 4 1
1.850000 0.340909 -5.039843 8 4 1
1.859091 0.340909 -5.039843 8 4 1
1.868182 0.340909 -5.039843 6 5 1
12.906250 2.343750 -34.648918 6 5 1
12.968750 2.343750 -34.648918 6 5 1
13.031250 2.343750 -34.648918 6 5 1
13.093750 2.343750 -34.648918 7 6 2
13.156250 2.343750 -34.648918 7 6 2
13.343750 2.343750 -34.648918 7 6 2
13.406250 2.343750 -34.648918 7 6 2
13.468750 2.343750 -34.648918 7 6 2
13.531250 2.343750 -34.648918 7 6 2
13.656250 2.343750 -34.648918 7 6 2
13.718750 2.343750 -34.648918 7 6 2
13.213483 2.247191 -33.221436 7 6 2
13.077491 2.214022 -32.731083 7 6 2
11.483871 1.935484 -28.613300 7 6 2
10.869301 1.823708 -26.960861 7 6 2
14.031250 2.343750 -34.648918 7 6 2
14.093750 2.343750 -34.648918 7 6 2
14.156250 2.343750 -34.648918 7 6 2
14.218750 2.343750 -34.648918 6 5 3
14.281250 2.343750 -34.648918 6 5 3
14.343750 2.343750 -34.648918 6 5 3
14.406250 2.343750 -34.648918 6 5 3
14.468750 2.343750 -34.648918 6 5 3
13.984962 2.255639 -33.346329 6 5 3
13.248227 2.127660 -31.454336 6 5 3
13.304964 2.127660 -31.454336 6 5 3
14.718750 2.343750 -34.648918 6 5 3
14.781250 2.343750 -34.648918 6 5 3
14.843750 2.343750 -34.648918 6 5 3
14.906250 2.343750 -34.648918 6 5 3
14.968750 2.343750 -34.648918 6 5 3
15.031250 2.343750 -34.648918 6 5 3
14.417911 2.238806 -33.097473 6 5 3
14.007220 2.166065 -32.022106 6 5 3
13.670176 2.105263 -31.123240 6 5 3
13.774648 2.112676 -31.232828 6 5 3
15.343750 2.343750 -34.648918 7 6 4
15.406250 2.343750 -34.648918 7 6 4
15.468750 2.343750 -34.648918 7 6 4
15.531250 2.343750 -34.648918 7 6 4
15.007519 2.255639 -33.346329 7 6 4
14.574546 2.181818 -32.254993 7 6 4
13.236842 1.973684 -29.178036 7 6 4
13.289474 1.973684 -29.178036 7 6 4
15.843750 2.343750 -34.648918 8 7 5
15.968750 2.343750 -34.648918 8 7 5
16.031250 2.343750 -34.648918 8 7 5
16.093750 2.343750 -34.648918 8 7 5
16.156250 2.343750 -34.648918 8 7 5
16.218750 2.343750 -34.648918 8 7 5
16.281250 2.343750 -34.648918 8 7 5
16.343750 2.343750 -34.648918 8 7 5
16.406250 2.343750 -34.648918 8 7 5
16.468750 2.343750 -34.648918 8 7 5
16.531250 2.343750 -34.648918 8 7 5
16.593750 2.343750 -34.648918 8 7 5
16.656250 2.343750 -34.648918 8 7 5
16.718750 2.343750 -34.648918 8 7 5
17.218750 2.343750 -34.648918 7 6 4
17.281250 2.343750 -34.648918 8 7 5
17.343750 2.343750 -34.648918 8 7 5
17.406250 2.343750 -34.648918 7 6 3
17.468750 2.343750 -34.648918 7 6 2
16.746269 2.238806 -33.097473 7 6 2
16.805969 2.238806 -33.097473 7 6 2
17.656250 2.343750 -34.648918 7 6 2
17.718750 2.343750 -34.648918 7 6 2
17.781250 2.343750 -34.648918 7 6 4
17.843750 2.343750 -34.648918 7 6 4
17.040892 2.230483 -32.974434 7 6 4
16.487455 2.150538 -31.792555 7 6 4
16.083624 2.090592 -30.906353 7 6 4
16.252632 2.105263 -31.123240 7 6 4
18.156250 2.343750 -34.648918 7 6 4
18.218750 2.343750 -34.648918 7 6 4
17.593985 2.255639 -33.346329 6 5 3
16.535212 2.112676 -31.232828 6 5 3
16.591549 2.112676 -31.232828 7 6 4
18.468750 2.343750 -34.648918 7 6 4
18.531250 2.343750 -34.648918 7 6 4
18.593750 2.343750 -34.648918 7 6 4
18.656250 2.343750 -34.648918 7 6 4
-5.064103 0.935897 -14.214941 35 25 15
-5.038462 0.935897 -14.214941 36 26 16
-5.020867 0.937400 -14.237758 37 27 17
-4.987179 0.935897 -14.214941 39 29 19
-4.969502 0.937400 -14.237758 39 29 19
-5.141903 0.974958 -14.808219 38 28 18
-5.115192 0.974958 -14.808219 36 26 16
-5.029703 0.963696 -14.637167 35 25 15
-4.978653 0.958949 -14.565063 34 24 14
-4.928104 0.954248 -14.493665 34 24 14
-4.926108 0.958949 -14.565063 33 25 15
-4.875817 0.954248 -14.493665 34 27 19
-5.053533 1.250535 -18.993839 78 73 68
-4.697395 1.170341 -17.775797 45 41 32
-3.683544 0.924051 -14.035005 38 29 22
-3.635220 0.918239 -13.946734 37 28 19
-3.587500 0.912500 -13.859568 39 29 19
-3.562500 0.912500 -13.859568 40 30 20
-3.548589 0.915361 -13.903014 43 33 21
-3.512500 0.912500 -13.859568 46 36 24
-3.487500 0.912500 -13.859568 44 34 24
-3.462500 0.912500 -13.859568 44 34 24
-3.525641 0.935897 -14.214941 42 34 23
-3.516908 0.940419 -14.283612 41 33 22
-3.571664 0.962109 -14.613052 41 33 22
-3.482201 0.944984 -14.352950 42 34 23
-3.456311 0.944984 -14.352950 43 35 24
-3.419355 0.941935 -14.306650 44 36 25
-3.421138 0.949593 -14.422964 44 36 25
-3.527027 0.986486 -14.983316 44 36 25
-3.500000 0.986486 -14.983316 44 36 25
-3.461279 0.983165 -14.932867 44 36 25
-3.344262 0.957377 -14.541185 45 37 26
-3.318033 0.957377 -14.541185 45 37 26
-3.207668 0.932907 -14.169526 45 37 26
-3.207730 0.940419 -14.283612 45 37 26
-3.181965 0.940419 -14.283612 45 37 26
-3.305228 0.984823 -14.958049 45 37 26
-3.283784 0.986486 -14.983316 45 37 26
-3.267797 0.989830 -15.034107 44 36 25
-3.285223 1.003436 -15.240761 44 36 25
-3.291667 1.013889 -15.399519 43 35 24
-3.197279 0.993197 -15.085243 43 35 24
-3.170068 0.993197 -15.085243 43 35 24
-3.197232 1.010381 -15.346233 44 36 25
-3.248227 1.035461 -15.727168 44 36 25
-3.219858 1.035461 -15.727168 44 36 25
-3.191489 1.035461 -15.727168 44 36 25
-3.118881 1.020979 -15.507208 43 35 24
-3.080139 1.017422 -15.453176 42 34 23
-3.020690 1.006896 -15.293316 42 34 23
-2.982818 1.003436 -15.240761 41 33 22
-2.955327 1.003436 -15.240761 41 33 20
-2.927835 1.003436 -15.240761 40 32 19
-1.970149 0.871642 -13.238990 8 7 5
-1.946269 0.871642 -13.238990 8 7 5
-1.966412 0.891603 -13.542172 7 6 4
-1.944954 0.892966 -13.562880 7 6 4
-1.917557 0.891603 -13.542172 6 5 3
-2.137931 1.006896 -15.293316 6 5 3
-2.110345 1.006896 -15.293316 7 6 4
-1.986842 0.960526 -14.589018 7 6 4
-1.960526 0.960526 -14.589018 7 6 4
-1.668790 0.929936 -14.124400 9 8 6
-1.643312 0.929936 -14.124400 9 8 6
-1.587500 0.912500 -13.859568 8 7 5
-1.536098 0.897081 -13.625381 8 7 5
-1.511521 0.897081 -13.625381 8 7 5
-1.543860 0.931419 -14.146927 9 8 6
-1.496855 0.918239 -13.946734 9 8 6
-1.457944 0.909657 -13.816391 9 8 6
-1.415385 0.898462 -13.646343 9 8 6
-1.388633 0.897081 -13.625381 8 7 5
-0.757143 1.042857 -15.839505 6 5 3
-0.728571 1.042857 -15.839505 7 6 4
-0.705036 1.050360 -15.953459 8 7 5
-0.653358 1.059891 -16.098227 8 7 5
-0.606702 1.029982 -15.643956 8 7 5
-0.571429 1.017422 -15.453176 9 8 6
-0.542609 1.015652 -15.426301 9 8 6
-0.530466 1.046595 -15.896277 9 8 6
-0.441281 1.039146 -15.783137 9 8 6
-0.407733 1.026362 -15.588968 8 7 5
-0.384342 1.039146 -15.783137 8 7 5
1.579618 0.338159 -5.136146 8 7 5
1.585211 0.337377 -5.124277 7 6 4
1.585296 0.335439 -5.094844 7 6 4
1.585380 0.333524 -5.065747 7 6 4
1.589977 0.332574 -5.051323 7 6 4
1.593644 0.331442 -5.034122 7 6 4
1.600000 0.330878 -5.025566 7 6 4
1.611805 0.331442 -5.034122 7 6 4
1.633867 0.334096 -5.074441 7 6 4
1.643021 0.334096 -5.074441 7 6 4
1.651229 0.333905 -5.071540 7 6 4
1.655644 0.332953 -5.057083 7 6 4
1.664766 0.332953 -5.057083 7 6 4
1.671982 0.332574 -5.051323 8 7 5
1.683010 0.332953 -5.057083 8 7 5
1.691168 0.332764 -5.054201 8 7 5
1.709049 0.334479 -5.080254 8 7 5
1.713307 0.333524 -5.065747 7 6 4
1.727377 0.334479 -5.080254 7 6 4
1.740528 0.335247 -5.091919 7 6 4
1.749713 0.335247 -5.091919 7 6 4
1.756881 0.334862 -5.086080 7 6 2
1.766055 0.334862 -5.086080 7 6 2
1.775229 0.334862 -5.086080 8 4 1
1.789534 0.335825 -5.100703 8 4 1
1.798735 0.335825 -5.100703 8 4 1
1.801719 0.334670 -5.083165 8 4 1
1.803653 0.333333 -5.062856 8 4 1
1.812785 0.333333 -5.062856 8 4 1
1.830275 0.334862 -5.086080 8 4 1
1.839450 0.334862 -5.086080 8 4 1
1.838084 0.332953 -5.057083 8 4 1
1.847206 0.332953 -5.057083 8 4 1
1.850000 0.331818 -5.039843 8 4 1
1.858035 0.331630 -5.036981 8 4 1
1.868182 0.331818 -5.039843 8 4 1
12.906250 2.281250 -34.648918 8 4 1
12.968750 2.281250 -34.648918 8 4 1
13.031250 2.281250 -34.648918 8 4 1
13.093750 2.281250 -34.648918 8 4 1
13.156250 2.281250 -34.648918 8 4 1
13.218750 2.281250 -34.648918 9 5 2
13.281250 2.281250 -34.648918 9 5 2
13.343750 2.281250 -34.648918 9 5 2
13.406250 2.281250 -34.648918 9 5 2
13.468750 2.281250 -34.648918 9 5 2
13.531250 2.281250 -34.648918 9 5 2
13.593750 2.281250 -34.648918 9 5 2
13.656250 2.281250 -34.648918 9 5 2
13.055762 2.171004 -32.974434 9 5 2
13.115242 2.171004 -32.974434 9 5 2
13.077491 2.154982 -32.731083 9 5 2
13.906250 2.281250 -34.648918 9 5 2
13.195572 2.154982 -32.731083 9 5 2
14.031250 2.281250 -34.648918 9 5 2
14.093750 2.281250 -34.648918 9 5 2
14.156250 2.281250 -34.648918 9 5 2
14.218750 2.281250 -34.648918 8 4 1
14.281250 2.281250 -34.648918 8 4 1
14.343750 2.281250 -34.648918 8 4 3
14.406250 2.281250 -34.648918 8 4 3
13.924812 2.195489 -33.346329 6 5 1
13.626373 2.139194 -32.491295 6 5 1
13.248227 2.070922 -31.454336 6 5 3
13.304964 2.070922 -31.454336 6 5 3
14.718750 2.281250 -34.648918 6 5 3
14.781250 2.281250 -34.648918 6 5 3
14.843750 2.281250 -34.648918 6 5 3
14.906250 2.281250 -34.648918 6 5 3
14.968750 2.281250 -34.648918 6 5 3
15.031250 2.281250 -34.648918 6 5 3
14.364312 2.171004 -32.974434 6 5 3
13.956835 2.100719 -31.906918 6 5 3
13.670176 2.049123 -31.123240 6 5 3
13.726315 2.049123 -31.123240 6 5 3
15.343750 2.281250 -34.648918 7 6 4
15.406250 2.281250 -34.648918 7 6 4
15.468750 2.281250 -34.648918 7 6 4
15.531250 2.281250 -34.648918 7 6 4
15.007519 2.195489 -33.346329 7 6 4
14.627737 2.131387 -32.372711 7 6 4
13.236842 1.921053 -29.178036 7 6 4
13.289474 1.921053 -29.178036 7 6 4
15.843750 2.281250 -34.648918 8 7 5
15.906250 2.281250 -34.648918 8 7 5
15.968750 2.281250 -34.648918 8 7 5
16.031250 2.281250 -34.648918 8 7 5
16.093750 2.281250 -34.648918 8 7 5
16.156250 2.281250 -34.648918 8 7 5
16.218750 2.281250 -34.648918 8 7 5
16.281250 2.281250 -34.648918 8 7 5
16.343750 2.281250 -34.648918 8 7 5
16.406250 2.281250 -34.648918 8 7 5
16.468750 2.281250 -34.648918 8 7 5
16.531250 2.281250 -34.648918 8 7 5
16.593750 2.281250 -34.648918 8 7 5
16.656250 2.281250 -34.648918 8 7 5
16.718750 2.281250 -34.648918 8 7 5
17.156250 2.281250 -34.648918 7 6 4
17.218750 2.281250 -34.648918 8 7 5
17.281250 2.281250 -34.648918 8 7 5
17.343750 2.281250 -34.648918 8 7 5
17.406250 2.281250 -34.648918 7 6 4
17.468750 2.281250 -34.648918 7 6 4
16.746269 2.179105 -33.097473 7 6 4
16.805969 2.179105 -33.097473 7 6 4
17.656250 2.281250 -34.648918 7 6 4
17.718750 2.281250 -34.648918 7 6 4
17.781250 2.281250 -34.648918 7 6 4
17.843750 2.281250 -34.648918 7 6 4
17.040892 2.171004 -32.974434 7 6 4
16.606499 2.108303 -32.022106 7 6 4
16.196491 2.049123 -31.123240 7 6 4
16.252632 2.049123 -31.123240 7 6 4
18.156250 2.281250 -34.648918 6 5 3
18.218750 2.281250 -34.648918 6 5 3
17.593985 2.195489 -33.346329 6 5 3
16.535212 2.056338 -31.232828 6 5 3
16.591549 2.056338 -31.232828 6 5 3
18.468750 2.281250 -34.648918 6 5 3
18.531250 2.281250 -34.648918 6 5 3
18.593750 2.281250 -34.648918 7 6 4
18.656250 2.281250 -34.648918 7 6 4
-5.089744 0.910256 -14.214941 36 26 16
-5.064103 0.910256 -14.214941 35 25 15
-5.087379 0.919094 -14.352950 35 25 15
-5.061489 0.919094 -14.352950 36 26 16
-4.987179 0.910256 -14.214941 38 28 18
-5.098170 0.945091 -14.758940 36 26 16
-5.046358 0.940397 -14.685635 35 25 15
-5.003300 0.937294 -14.637167 34 24 14
-4.952381 0.932676 -14.565063 33 23 14
-4.926108 0.932676 -14.565063 33 25 16
-4.875817 0.928105 -14.493665 35 28 20
-5.087794 1.216274 -18.993839 77 76 71
-5.053533 1.216274 -18.993839 75 70 65
-4.773931 1.156823 -18.065424 45 38 30
-4.693548 1.145161 -17.883312 37 28 21
-4.633266 1.138277 -17.775797 37 28 19
-3.587500 0.887500 -13.859568 40 30 20
-3.540373 0.881988 -13.773483 41 31 21
-3.531981 0.886115 -13.837946 44 34 22
-3.507020 0.886115 -13.837946 47 37 25
-3.482059 0.886115 -13.837946 45 35 25
-3.409231 0.873846 -13.646343 44 34 24
-3.384615 0.873846 -13.646343 42 34 23
-3.601329 0.943522 -14.734424 40 32 21
-3.551155 0.937294 -14.637167 40 32 21
-3.524752 0.937294 -14.637167 42 34 23
-3.447155 0.923577 -14.422964 43 35 24
-3.536134 0.954622 -14.907770 43 35 24
-3.557070 0.967632 -15.110942 43 35 24
-3.523809 0.965986 -15.085243 43 35 24
-3.472973 0.959459 -14.983316 43 35 24
-3.344262 0.931148 -14.541185 43 35 24
-3.318033 0.931148 -14.541185 44 36 25
-3.172196 0.897314 -14.012833 45 37 26
-3.137008 0.894488 -13.968698 45 37 26
-3.111811 0.894488 -13.968698 46 38 27
-3.322034 0.962712 -15.034107 45 37 26
-3.369151 0.984402 -15.372830 44 36 25
-3.341421 0.984402 -15.372830 44 36 25
-3.313692 0.984402 -15.372830 43 35 24
-3.320490 0.994746 -15.534366 42 34 23
-3.252595 0.982699 -15.346233 43 35 24
-3.236111 0.986111 -15.399519 44 36 25
-3.276596 1.007092 -15.727168 44 36 25
-3.259786 1.010676 -15.783137 44 36 25
-3.231317 1.010676 -15.783137 45 37 26
-3.202847 1.010676 -15.783137 44 36 25
-3.129825 0.996491 -15.561620 43 35 24
-3.090909 0.993007 -15.507208 42 34 23
-3.052265 0.989547 -15.453176 42 34 23
-3.019130 0.987826 -15.426301 42 34 23
-2.975779 0.982699 -15.346233 41 33 21
-2.948097 0.982699 -15.346233 41 33 20
-2.920415 0.982699 -15.346233 42 32 20
-2.907826 0.987826 -15.426301 42 32 20
-2.890052 0.991274 -15.480145 40 31 21
-1.946269 0.847761 -13.238990 8 7 5
-1.966412 0.867176 -13.542172 8 7 5
-1.944954 0.868502 -13.562880 7 6 4
-1.587500 0.887500 -13.859568 8 7 5
-1.536098 0.872504 -13.625381 8 7 5
-1.511521 0.872504 -13.625381 8 7 5
-1.548800 0.908800 -14.192197 9 8 6
-1.523200 0.908800 -14.192197 9 8 6
-1.471698 0.893082 -13.946734 9 8 6
-1.442006 0.890282 -13.903014 9 8 6
-0.733813 1.021583 -15.953459 7 6 4
-0.683636 1.032727 -16.127497 8 7 5
-0.654545 1.032727 -16.127497 9 8 6
-0.614286 1.014286 -15.839505 9 8 6
-0.581560 1.007092 -15.727168 9 8 6
-0.559140 1.017921 -15.896277 9 8 6
-0.538182 1.032727 -16.127497 9 8 6
-0.443649 1.016100 -15.867841 9 8 6
-0.412811 1.010676 -15.783137 8 7 5
-0.387097 1.017921 -15.896277 8 7 5
1.578704 0.328704 -5.133173 8 7 5
1.582468 0.327566 -5.115411 8 7 5
1.583477 0.325875 -5.088998 7 6 4
1.583571 0.324016 -5.059968 7 6 4
1.585463 0.322544 -5.036981 7 6 4
1.590935 0.321813 -5.025566 7 6 4
1.590090 0.319820 -4.994439 7 6 4
1.609065 0.321813 -5.025566 7 6 4
1.624573 0.323094 -5.045576 7 6 4
1.640206 0.324386 -5.065747 7 6 4
1.646522 0.323831 -5.057083 7 6 4
1.653759 0.323462 -5.051323 7 6 4
1.662870 0.323462 -5.051323 7 6 4
1.669130 0.322911 -5.042708 8 7 5
1.678226 0.322911 -5.042708 8 7 5
1.687322 0.322911 -5.042708 8 7 5
1.704169 0.324386 -5.065747 8 7 5
1.709402 0.323647 -5.054201 7 6 4
1.727377 0.325315 -5.080254 7 6 4
1.740528 0.326062 -5.091919 7 6 4
1.749713 0.326062 -5.091919 7 6 4
1.756881 0.325688 -5.086080 7 6 2
1.765043 0.325501 -5.083165 7 6 2
1.774212 0.325501 -5.083165 8 4 1
1.801719 0.325501 -5.083165 8 4 1
1.800570 0.323647 -5.054201 8 4 1
1.809687 0.323647 -5.054201 8 4 1
1.830275 0.325688 -5.086080 8 4 1
1.839450 0.325688 -5.086080 8 4 1
1.838084 0.323831 -5.057083 8 4 1
1.845103 0.323462 -5.051323 8 4 1
1.848949 0.322544 -5.036981 8 4 1
1.858035 0.322544 -5.036981 8 4 1
1.867121 0.322544 -5.036981 8 4 1
12.906250 2.218750 -34.648918 8 4 1
12.968750 2.218750 -34.648918 8 4 1
13.031250 2.218750 -34.648918 8 4 1
13.093750 2.218750 -34.648918 8 4 1
13.156250 2.218750 -34.648918 8 4 1
13.218750 2.218750 -34.648918 8 4 1
13.281250 2.218750 -34.648918 8 4 1
13.343750 2.218750 -34.648918 9 5 2
13.406250 2.218750 -34.648918 9 5 2
13.468750 2.218750 -34.648918 9 5 2
13.531250 2.218750 -34.648918 9 5 2
13.593750 2.218750 -34.648918 9 5 2
13.656250 2.218750 -34.648918 9 5 2
13.007407 2.103704 -32.852306 9 5 2
13.066667 2.103704 -32.852306 9 5 2
13.077491 2.095941 -32.731083 9 5 2
13.906250 2.218750 -34.648918 9 5 2
13.968750 2.218750 -34.648918 9 5 2
14.031250 2.218750 -34.648918 9 5 2
14.093750 2.218750 -34.648918 9 5 2
14.156250 2.218750 -34.648918 9 5 2
14.218750 2.218750 -34.648918 9 5 2
14.281250 2.218750 -34.648918 8 4 1
14.343750 2.218750 -34.648918 8 4 3
14.406250 2.218750 -34.648918 8 4 3
13.820895 2.119403 -33.097473 6 5 1
13.429603 2.050541 -32.022106 6 5 1
13.248227 2.014184 -31.454336 6 5 3
13.304964 2.014184 -31.454336 6 5 3
14.718750 2.218750 -34.648918 6 5 3
14.781250 2.218750 -34.648918 6 5 3
14.843750 2.218750 -34.648918 6 5 3
14.906250 2.218750 -34.648918 6 5 3
14.968750 2.218750 -34.648918 6 5 3
15.031250 2.218750 -34.648918 6 5 3
14.258303 2.095941 -32.731083 6 5 3
13.807829 2.021352 -31.566275 6 5 3
13.670176 1.992983 -31.123240 6 5 3
13.630662 1.979094 -30.906353 6 5 3
15.343750 2.218750 -34.648918 7 6 4
15.406250 2.218750 -34.648918 7 6 4
15.468750 2.218750 -34.648918 7 6 4
15.531250 2.218750 -34.648918 7 6 4
14.951311 2.127341 -33.221436 7 6 4
14.627737 2.072993 -32.372711 7 6 4
13.236842 1.868421 -29.178036 7 6 4
13.289474 1.868421 -29.178036 7 6 4
15.843750 2.218750 -34.648918 7 6 4
15.906250 2.218750 -34.648918 8 7 5
15.968750 2.218750 -34.648918 7 6 4
16.031250 2.218750 -34.648918 7 6 4
16.093750 2.218750 -34.648918 7 6 4
16.156250 2.218750 -34.648918 7 6 4
16.218750 2.218750 -34.648918 8 7 5
16.281250 2.218750 -34.648918 8 7 5
16.343750 2.218750 -34.648918 8 7 5
16.406250 2.218750 -34.648918 8 7 5
16.468750 2.218750 -34.648918 8 7 5
16.531250 2.218750 -34.648918 8 7 5
15.969925 2.135338 -33.346329 8 7 5
15.851301 2.111524 -32.974434 8 7 5
16.718750 2.218750 -34.648918 8 7 5
16.843750 2.218750 -34.648918 8 7 5
17.093750 2.218750 -34.648918 7 6 4
17.156250 2.218750 -34.648918 7 6 4
17.218750 2.218750 -34.648918 8 7 5
17.281250 2.218750 -34.648918 8 7 5
17.343750 2.218750 -34.648918 8 7 5
17.406250 2.218750 -34.648918 8 7 5
17.468750 2.218750 -34.648918 7 6 4
16.622223 2.103704 -32.852306 7 6 4
16.681482 2.103704 -32.852306 7 6 4
17.656250 2.218750 -34.648918 7 6 4
17.718750 2.218750 -34.648918 7 6 4
17.781250 2.218750 -34.648918 7 6 4
17.843750 2.218750 -34.648918 7 6 4
16.915129 2.095941 -32.731083 7 6 4
16.606499 2.050541 -32.022106 7 6 4
16.196491 1.992983 -31.123240 7 6 4
16.252632 1.992983 -31.123240 7 6 4
18.156250 2.218750 -34.648918 6 5 3
18.218750 2.218750 -34.648918 6 5 3
17.397770 2.111524 -32.974434 6 5 3
16.535212 2.000000 -31.232828 5 4 2
16.591549 2.000000 -31.232828 6 5 3
18.468750 2.218750 -34.648918 6 5 3
18.531250 2.218750 -34.648918 6 5 3
18.593750 2.218750 -34.648918 6 5 3
18.656250 2.218750 -34.648918 6 5 3
-5.087379 0.893204 -14.352950 37 25 13
-5.061489 0.893204 -14.352950 37 25 13
-5.089701 0.916944 -14.734424 38 26 14
-5.063123 0.916944 -14.734424 38 26 14
-5.003300 0.910891 -14.637167 37 26 15
-4.960526 0.907895 -14.589018 36 26 17
-4.934210 0.907895 -14.589018 36 28 18
-4.899836 0.906404 -14.565063 36 29 21
-5.087794 1.182013 -18.993839 76 75 70
-5.053533 1.182013 -18.993839 76 71 67
-4.773931 1.124236 -18.065424 49 42 34
-4.712551 1.117409 -17.955715 36 27 20
-4.680162 1.117409 -17.955715 39 29 20
-3.559690 0.855814 -13.752129 39 29 19
-3.529412 0.854489 -13.730841 39 29 17
-3.504644 0.854489 -13.730841 42 32 20
-3.490683 0.857143 -13.773483 44 34 22
-3.465838 0.857143 -13.773483 43 33 21
-3.372907 0.840183 -13.500948 42 32 20
-3.343465 0.838906 -13.480431 42 32 22
-3.483253 0.880383 -14.146927 41 31 21
-3.619366 0.921536 -14.808219 40 32 21
-3.574751 0.916944 -14.734424 41 33 22
-3.548173 0.916944 -14.734424 41 32 23
-3.563025 0.927731 -14.907770 42 33 24
-3.659130 0.960000 -15.426301 43 34 25
-3.612457 0.955017 -15.346233 43 34 25
-3.529813 0.940375 -15.110942 43 34 25
-3.478849 0.934010 -15.008669 43 34 25
-3.349754 0.906404 -14.565063 44 36 25
-3.323481 0.906404 -14.565063 44 36 25
-3.187302 0.876190 -14.079560 44 36 25
-3.141956 0.870662 -13.990730 44 36 25
-3.116719 0.870662 -13.990730 46 36 26
-3.286713 0.965035 -15.507208 44 36 25
-3.264448 0.966725 -15.534366 44 36 25
-3.282416 0.980462 -15.755103 45 37 26
-3.259786 0.982206 -15.783137 44 36 25
-3.231317 0.982206 -15.783137 44 36 25
-3.202847 0.982206 -15.783137 44 36 25
-3.146384 0.973545 -15.643956 44 36 25
-3.101754 0.968421 -15.561620 43 35 24
-3.068301 0.966725 -15.534366 42 34 23
-3.034965 0.965035 -15.507208 42 34 23
-2.991304 0.960000 -15.426301 41 33 21
-2.958333 0.958333 -15.399519 42 34 21
-2.930556 0.958333 -15.399519 41 33 20
-2.980392 0.983957 -15.811271 41 33 20
-2.936170 0.978723 -15.727168 40 31 21
-1.944954 0.844037 -13.562880 8 7 5
-1.618421 0.907895 -14.589018 8 7 5
-1.592105 0.907895 -14.589018 8 7 5
-1.565789 0.907895 -14.589018 9 8 6
-1.492823 0.880383 -14.146927 8 7 5
-0.732495 0.991023 -15.924817 7 6 4
-0.705036 0.992806 -15.953459 7 6 4
-0.683636 1.003636 -16.127497 8 7 5
-0.654545 1.003636 -16.127497 9 8 6
-0.615385 0.987478 -15.867841 9 8 6
-0.586762 0.987478 -15.867841 9 8 6
-0.560144 0.991023 -15.924817 9 8 6
-0.539162 1.005464 -16.156872 9 8 6
-0.515654 1.016575 -16.335402 8 7 5
-0.483516 1.010989 -16.245647 8 7 5
-0.446847 0.994595 -15.982203 8 7 5
-0.415771 0.989247 -15.896277 9 8 6
-0.389189 0.994595 -15.982203 9 8 6
1.579618 0.319629 -5.136146 8 7 5
1.582468 0.318339 -5.115411 8 7 5
1.583477 0.316695 -5.088998 7 6 4
1.582668 0.314709 -5.057083 7 6 4
1.584563 0.313280 -5.034122 6 5 3
1.581081 0.310811 -4.994439 6 5 3
1.590090 0.310811 -4.994439 6 5 3
1.599099 0.310811 -4.994439 7 6 4
1.624573 0.313993 -5.045576 7 6 4
1.643021 0.315789 -5.074441 8 7 5
1.645584 0.314530 -5.054201 8 7 5
1.653759 0.314351 -5.051323 8 7 5
1.661924 0.314172 -5.048448 8 7 5
1.668182 0.313636 -5.039843 8 7 5
1.677273 0.313636 -5.039843 8 7 5
1.686364 0.313636 -5.039843 8 7 5
1.700285 0.314530 -5.054201 7 6 4
1.709402 0.314530 -5.054201 7 6 4
1.728367 0.316332 -5.083165 7 6 4
1.742529 0.317241 -5.097772 7 6 4
1.751724 0.317241 -5.097772 7 6 4
1.757889 0.316695 -5.088998 7 6 2
1.766055 0.316514 -5.086080 7 6 2
1.803787 0.316695 -5.088998 6 5 1
1.809851 0.316151 -5.080254 8 4 1
1.831325 0.316695 -5.088998 8 4 1
1.839450 0.316514 -5.086080 8 4 1
1.835991 0.314351 -5.051323 8 4 1
1.844052 0.314172 -5.048448 8 4 1
1.848949 0.313458 -5.036981 7 3 0
1.858035 0.313458 -5.036981 7 3 0
1.867121 0.313458 -5.036981 8 4 1
12.906250 2.156250 -34.648918 8 4 1
12.968750 2.156250 -34.648918 8 4 1
13.031250 2.156250 -34.648918 8 4 1
