ply
        format ascii 1.0
        element vertex 89234
        property float x
        property float y
        property float z
        property uchar red
        property uchar green
        property uchar blue
        end_header
-0.531250 11.218750 -34.648918 83 83 83
-0.468750 11.218750 -34.648918 82 82 82
-0.406250 11.218750 -34.648918 76 76 76
-0.343750 11.218750 -34.648918 81 81 81
-0.281250 11.218750 -34.648918 87 87 87
-0.218750 11.218750 -34.648918 84 84 84
-0.156250 11.218750 -34.648918 85 85 85
-0.093750 11.218750 -34.648918 84 84 84
-0.031250 11.218750 -34.648918 84 84 84
0.031250 11.218750 -34.648918 90 90 90
0.093750 11.218750 -34.648918 94 94 94
0.156250 11.218750 -34.648918 90 90 90
0.218750 11.218750 -34.648918 87 87 87
0.281250 11.218750 -34.648918 77 77 77
0.343750 11.218750 -34.648918 86 86 86
0.406250 11.218750 -34.648918 95 95 95
0.468750 11.218750 -34.648918 93 93 93
0.531250 11.218750 -34.648918 91 91 91
0.593750 11.218750 -34.648918 93 93 93
0.656250 11.218750 -34.648918 93 93 93
0.718750 11.218750 -34.648918 97 97 97
0.781250 11.218750 -34.648918 93 93 93
0.843750 11.218750 -34.648918 90 90 90
0.906250 11.218750 -34.648918 77 77 77
0.968750 11.218750 -34.648918 86 86 86
1.031250 11.218750 -34.648918 98 98 98
1.093750 11.218750 -34.648918 96 96 96
1.156250 11.218750 -34.648918 96 96 96
1.218750 11.218750 -34.648918 96 96 96
1.281250 11.218750 -34.648918 96 96 96
1.343750 11.218750 -34.648918 96 96 96
1.406250 11.218750 -34.648918 91 91 91
1.468750 11.218750 -34.648918 88 88 88
1.531250 11.218750 -34.648918 78 78 78
1.656250 11.218750 -34.648918 93 93 93
1.718750 11.218750 -34.648918 95 95 95
1.781250 11.218750 -34.648918 96 96 96
1.843750 11.218750 -34.648918 94 94 94
1.906250 11.218750 -34.648918 94 94 94
1.968750 11.218750 -34.648918 95 95 95
1.625000 8.975000 -27.719135 91 91 91
2.000000 8.864198 -27.376923 92 92 92
2.094637 9.059937 -27.981461 89 89 89
2.195584 9.059937 -27.981461 87 87 87
2.151057 8.676737 -26.797955 84 84 84
2.517134 8.947041 -27.632782 80 80 80
2.575000 8.975000 -27.719135 86 86 86
6.593750 11.218750 -34.648918 219 243 255
6.334572 10.676579 -32.974434 218 240 255
6.035088 10.077193 -31.123240 213 232 249
6.968750 11.218750 -34.648918 158 172 198
7.031250 11.218750 -34.648918 176 191 219
7.093750 11.218750 -34.648918 210 226 249
7.156250 11.218750 -34.648918 218 234 255
6.947369 10.796992 -33.346329 206 220 236
6.609929 10.184397 -31.454336 231 242 250
6.372881 9.735593 -30.068214 247 254 255
6.216393 9.416393 -29.082371 250 254 255
6.069841 9.117460 -28.159121 253 255 255
6.120635 9.117460 -28.159121 255 255 253
6.415842 9.478548 -29.274334 254 255 250
6.925795 10.148410 -31.343191 254 254 247
7.133574 10.368231 -32.022106 172 171 160
7.323529 10.558824 -32.610748 220 217 203
7.382353 10.558824 -32.610748 241 237 219
7.280576 10.330935 -31.906918 244 238 219
6.777409 9.541529 -29.468847 243 237 216
6.425000 8.975000 -27.719135 244 238 216
6.475000 8.975000 -27.719135 245 239 217
7.820225 10.756555 -33.221436 243 238 218
7.939623 10.837736 -33.472164 244 239 220
7.910448 10.716418 -33.097473 243 237 221
7.852941 10.558824 -32.610748 238 233 220
7.631206 10.184397 -31.454336 241 239 232
7.424657 9.835616 -30.377134 251 251 247
7.255814 9.541529 -29.468847 254 255 250
7.028754 9.175719 -28.339052 255 255 252
6.839506 8.864198 -27.376923 255 255 253
6.763637 8.703031 -26.879160 255 255 254
6.650887 8.497042 -26.242968 254 254 255
6.487106 8.229226 -25.415825 254 254 255
6.368715 8.022346 -24.776880 255 255 255
6.256131 7.825613 -24.169273 254 254 255
6.198391 7.699732 -23.780491 199 199 199
6.062500 7.479167 -23.099279 114 114 114
1.677956 1.706477 -5.270424 90 90 90
1.703659 1.722855 -5.321010 91 91 91
1.711204 1.720791 -5.314633 88 88 88
1.719761 1.719761 -5.311451 82 82 82
1.727273 1.717703 -5.305098 82 82 82
1.734767 1.715651 -5.298759 89 89 89
1.675272 1.647734 -5.088998 89 89 89
1.684452 1.647734 -5.088998 87 87 87
1.694604 1.648680 -5.091919 85 85 85
1.705747 1.650575 -5.097772 85 85 85
1.716916 1.652474 -5.103638 86 86 86
1.726122 1.652474 -5.103638 86 86 86
1.736327 1.653425 -5.106576 83 83 83
1.753615 1.661076 -5.130204 84 84 84
1.763889 1.662037 -5.133173 90 90 90
1.772123 1.661076 -5.130204 89 89 89
1.781376 1.661076 -5.130204 82 82 82
1.788562 1.659157 -5.124277 79 79 79
1.797805 1.659157 -5.124277 87 87 87
1.807048 1.659157 -5.124277 91 91 91
12.531250 11.218750 -34.648918 85 85 85
12.593750 11.218750 -34.648918 84 84 84
12.656250 11.218750 -34.648918 91 91 91
13.093750 11.218750 -34.648918 85 85 85
13.156250 11.218750 -34.648918 92 92 92
8.835509 7.498694 -23.159590 94 94 94
9.090909 7.679144 -23.716906 92 92 92
9.158177 7.699732 -23.780491 91 91 91
9.201073 7.699732 -23.780491 90 90 90
9.026178 7.518324 -23.220217 90 90 90
9.044387 7.498694 -23.159590 87 87 87
9.086162 7.498694 -23.159590 78 78 78
9.175853 7.538058 -23.281162 83 83 83
9.517615 7.783198 -24.038275 86 86 86
9.665753 7.868493 -24.301706 85 85 85
9.709589 7.868493 -24.301706 86 86 86
9.753425 7.868493 -24.301706 88 88 88
9.770492 7.846994 -24.235310 88 88 88
9.814208 7.846994 -24.235310 88 88 88
9.804348 7.804348 -24.103596 88 88 88
10.324786 8.182336 -25.271006 86 86 86
10.253521 8.090141 -24.986261 85 85 85
10.212291 8.022346 -24.776880 87 87 87
9.978261 7.804348 -24.103596 88 88 88
9.887400 7.699732 -23.780491 89 89 89
9.824934 7.618037 -23.528177 90 90 90
9.738220 7.518324 -23.220217 90 90 90
9.729167 7.479167 -23.099279 88 88 88
9.720207 7.440414 -22.979593 88 88 88
9.761658 7.440414 -22.979593 88 88 88
10.282609 7.804348 -24.103596 88 88 88
10.326087 7.804348 -24.103596 86 86 86
10.659218 8.022346 -24.776880 84 84 84
10.794366 8.090141 -24.986261 90 90 90
10.839437 8.090141 -24.986261 93 93 93
10.644629 7.911846 -24.435600 92 92 92
10.543478 7.804348 -24.103596 87 87 87
9.964194 7.345269 -22.685738 86 86 86
9.903797 7.270886 -22.456007 88 88 88
9.919192 7.252525 -22.399302 89 89 89
9.909548 7.216080 -22.286741 85 85 85
9.753695 7.073892 -21.847593 85 85 85
9.627119 6.953995 -21.477295 86 86 86
9.573141 6.887290 -21.271278 84 84 84
9.611511 6.887290 -21.271278 84 84 84
9.743341 6.953995 -21.477295 90 90 90
9.782083 6.953995 -21.477295 91 91 91
9.764988 6.887290 -21.271278 88 88 88
9.441109 6.632794 -20.485273 90 90 90
10.511393 7.270886 -22.456007 81 81 81
10.266010 7.073892 -21.847593 85 85 85
10.033573 6.887290 -21.271278 87 87 87
10.526316 7.197995 -22.230885 87 87 87
14.282051 9.205129 -28.429882 83 83 83
14.710526 9.447369 -29.178036 83 83 83
14.763158 9.447369 -29.178036 93 93 93
14.815789 9.447369 -29.178036 94 94 94
14.819673 9.416393 -29.082371 92 92 92
14.872131 9.416393 -29.082371 92 92 92
14.875817 9.385621 -28.987329 90 90 90
14.928104 9.385621 -28.987329 92 92 92
14.980392 9.385621 -28.987329 89 89 89
14.983713 9.355049 -28.892908 86 86 86
14.890323 9.264516 -28.613300 90 90 90
14.941936 9.264516 -28.613300 87 87 87
14.042296 8.676737 -26.797955 81 81 81
14.090634 8.676737 -26.797955 85 85 85
13.846154 8.497042 -26.242968 88 88 88
13.690962 8.373178 -25.860416 86 86 86
13.424501 8.182336 -25.271006 82 82 82
13.431818 8.159091 -25.199213 81 81 81
13.363380 8.090141 -24.986261 88 88 88
13.408451 8.090141 -24.986261 95 95 95
-6.394737 9.394737 -29.178036 96 96 96
-6.219355 9.212903 -28.613300 94 94 94
-6.128205 9.153846 -28.429882 95 95 95
-6.038217 9.095541 -28.248800 97 97 97
-5.987261 9.095541 -28.248800 97 97 97
-5.993569 9.183280 -28.521296 92 92 92
-5.961290 9.212903 -28.613300 83 83 83
-5.909678 9.212903 -28.613300 77 77 77
-5.934640 9.333333 -28.987329 95 95 95
-5.806452 9.212903 -28.613300 97 97 97
-5.717949 9.153846 -28.429882 95 95 95
-5.666667 9.153846 -28.429882 97 97 97
-5.600000 9.212903 -28.613300 94 94 94
-5.460318 9.066667 -28.159121 100 101 100
-5.426752 9.095541 -28.248800 93 95 94
-5.552631 9.394737 -29.178036 96 96 94
-5.447369 9.394737 -29.178036 112 110 104
-1.090425 1.898936 -5.897688 200 198 186
-1.079787 1.898936 -5.897688 233 228 213
-2.100264 3.767810 -11.702009 231 226 206
-2.046753 3.709091 -11.519640 225 221 202
-2.000000 3.661538 -11.371953 222 219 205
-1.969388 3.642857 -11.313932 164 161 153
-1.939086 3.624366 -11.256501 112 110 105
-1.916350 3.619772 -11.242234 94 94 91
-1.886507 3.601513 -11.185527 98 98 96
-1.859296 3.587940 -11.143371 98 99 96
-1.836888 3.583438 -11.129389 94 95 94
-1.814536 3.578947 -11.115442 94 94 94
-3.816712 7.698113 -23.908688 97 97 97
-3.773585 7.698113 -23.908688 98 98 98
-3.730458 7.698113 -23.908688 95 95 95
-3.667560 7.656837 -23.780491 86 86 86
-3.464567 7.496063 -23.281162 99 99 99
-3.100000 7.140000 -22.175308 98 98 98
-3.060000 7.140000 -22.175308 99 99 99
-3.020000 7.140000 -22.175308 98 98 98
-2.980000 7.140000 -22.175308 98 98 98
-2.620690 7.034483 -21.847593 97 97 97
-2.581281 7.034483 -21.847593 94 94 94
-2.541872 7.034483 -21.847593 92 92 92
-1.968750 11.156250 -34.648918 84 84 84
-1.906250 11.156250 -34.648918 88 88 88
-1.843750 11.156250 -34.648918 91 91 91
-1.781250 11.156250 -34.648918 86 86 86
-1.718750 11.156250 -34.648918 94 94 94
-1.656250 11.156250 -34.648918 91 91 91
-1.593750 11.156250 -34.648918 95 95 95
-1.531250 11.156250 -34.648918 87 87 87
-1.468750 11.156250 -34.648918 84 84 84
-1.406250 11.156250 -34.648918 77 77 77
-1.343750 11.156250 -34.648918 89 89 89
-1.281250 11.156250 -34.648918 92 92 92
-1.218750 11.156250 -34.648918 95 95 95
-1.156250 11.156250 -34.648918 91 91 91
-1.093750 11.156250 -34.648918 86 86 86
-1.031250 11.156250 -34.648918 92 92 92
-0.968750 11.156250 -34.648918 96 96 96
-0.859259 10.577778 -32.852306 95 95 95
-0.794118 10.500000 -32.610748 97 97 97
-0.735294 10.500000 -32.610748 97 97 97
-0.676471 10.500000 -32.610748 68 68 68
-0.617647 10.500000 -32.610748 90 90 90
-0.560886 10.538745 -32.731083 91 91 91
-0.509363 10.696630 -33.221436 96 96 96
-0.468750 11.156250 -34.648918 89 89 89
-0.406250 11.156250 -34.648918 91 91 91
-0.343750 11.156250 -34.648918 91 91 91
-0.281250 11.156250 -34.648918 90 90 90
-0.218750 11.156250 -34.648918 92 92 92
-0.156250 11.156250 -34.648918 86 86 86
-0.093750 11.156250 -34.648918 80 80 80
-0.031250 11.156250 -34.648918 83 83 83
0.031250 11.156250 -34.648918 83 83 83
0.093750 11.156250 -34.648918 87 87 87
0.156250 11.156250 -34.648918 83 83 83
0.656250 11.156250 -34.648918 81 81 81
0.843750 11.156250 -34.648918 88 88 88
0.906250 11.156250 -34.648918 76 76 76
0.968750 11.156250 -34.648918 80 80 80
1.031250 11.156250 -34.648918 91 91 91
1.093750 11.156250 -34.648918 94 94 94
1.156250 11.156250 -34.648918 96 96 96
1.218750 11.156250 -34.648918 94 94 94
1.281250 11.156250 -34.648918 94 94 94
1.343750 11.156250 -34.648918 92 92 92
1.406250 11.156250 -34.648918 93 93 93
1.468750 11.156250 -34.648918 93 93 93
1.531250 11.156250 -34.648918 87 87 87
1.718750 11.156250 -34.648918 96 96 96
1.781250 11.156250 -34.648918 94 94 94
6.593750 11.156250 -34.648918 222 248 255
6.968750 11.156250 -34.648918 184 197 218
7.031250 11.156250 -34.648918 154 169 191
7.093750 11.156250 -34.648918 179 195 218
6.760148 10.538745 -32.731083 213 230 250
6.484210 10.021052 -31.123240 211 230 246
6.255033 9.583893 -29.765514 202 222 234
6.006390 9.124600 -28.339052 234 249 251
5.888199 8.869565 -27.546967 248 255 255
5.759036 8.602409 -26.717237 252 255 255
5.687315 8.424779 -26.165554 254 255 255
5.734513 8.424779 -26.165554 255 255 255
6.468647 9.425742 -29.274334 254 253 252
7.007092 10.127660 -31.454336 206 203 199
7.323529 10.500000 -32.610748 212 208 200
7.382353 10.500000 -32.610748 227 223 212
7.052265 9.951220 -30.906353 234 229 215
6.710526 9.394737 -29.178036 235 230 212
6.174174 8.576576 -26.637007 236 230 212
6.222222 8.576576 -26.637007 238 231 213
7.880150 10.696630 -33.221436 237 230 214
7.737226 10.423358 -32.372711 239 232 216
7.574468 10.127660 -31.454336 238 232 219
7.446367 9.882353 -30.692467 235 231 222
7.202658 9.488372 -29.468847 246 245 239
6.977636 9.124600 -28.339052 254 254 248
6.790123 8.814815 -27.376923 255 255 251
6.595238 8.500000 -26.399176 254 254 252
6.564706 8.400000 -26.088596 255 255 253
6.386364 8.113636 -25.199213 255 255 254
6.219780 7.846154 -24.368469 253 253 253
6.080000 7.616000 -23.653662 253 253 254
5.979167 7.437500 -23.099279 254 254 255
5.928205 7.323077 -22.743906 254 254 255
5.863980 7.193954 -22.342878 180 180 182
5.904282 7.193954 -22.342878 111 111 112
1.713257 1.713257 -5.321010 90 90 90
1.720791 1.711204 -5.314633 86 86 86
1.730377 1.711204 -5.314633 83 83 83
1.736842 1.708134 -5.305098 86 86 86
1.748503 1.710180 -5.311451 90 90 90
1.753883 1.706093 -5.298759 92 92 92
1.786925 1.728814 -5.369324 91 91 91
1.793353 1.725680 -5.359591 91 91 91
1.794348 1.717378 -5.333808 93 93 93
1.730104 1.647059 -5.115411 91 91 91
1.744361 1.651822 -5.130204 85 85 85
1.753615 1.651822 -5.130204 83 83 83
12.468750 11.156250 -34.648918 88 88 88
12.531250 11.156250 -34.648918 87 87 87
12.593750 11.156250 -34.648918 81 81 81
12.656250 11.156250 -34.648918 84 84 84
12.718750 11.156250 -34.648918 89 89 89
12.781250 11.156250 -34.648918 89 89 89
12.843750 11.156250 -34.648918 87 87 87
12.906250 11.156250 -34.648918 87 87 87
12.968750 11.156250 -34.648918 89 89 89
13.031250 11.156250 -34.648918 87 87 87
13.093750 11.156250 -34.648918 82 82 82
13.156250 11.156250 -34.648918 86 86 86
13.218750 11.156250 -34.648918 93 93 93
13.281250 11.156250 -34.648918 94 94 94
13.343750 11.156250 -34.648918 93 93 93
13.406250 11.156250 -34.648918 93 93 93
13.468750 11.156250 -34.648918 94 94 94
13.593750 11.156250 -34.648918 87 87 87
13.656250 11.156250 -34.648918 82 82 82
10.873065 8.842105 -27.461681 88 88 88
10.196532 8.254335 -25.636194 87 87 87
9.871866 7.955432 -24.707863 87 87 87
9.834254 7.889503 -24.503103 88 88 88
9.824176 7.846154 -24.368469 89 89 89
9.868132 7.846154 -24.368469 89 89 89
10.415955 8.136752 -25.271006 86 86 86
10.256983 7.977654 -24.776880 86 86 86
10.159780 7.867769 -24.435600 88 88 88
10.010811 7.718919 -23.973305 89 89 89
9.867374 7.575597 -23.528177 88 88 88
9.780105 7.476440 -23.220217 89 89 89
9.821989 7.476440 -23.220217 89 89 89
11.237536 8.375366 -26.012091 88 88 88
11.186047 8.302325 -25.785242 86 86 86
11.232558 8.302325 -25.785242 85 85 85
10.762431 7.889503 -24.503103 90 90 90
10.134715 7.398964 -22.979593 89 89 89
10.046036 7.304348 -22.685738 87 87 87
10.086957 7.304348 -22.685738 88 88 88
10.050761 7.248731 -22.513002 88 88 88
9.793103 7.034483 -21.847593 85 85 85
10.131980 7.248731 -22.513002 85 85 85
10.356589 7.379845 -22.920214 88 88 88
10.905149 7.739837 -24.038275 89 89 89
10.948509 7.739837 -24.038275 85 85 85
11.941349 8.375366 -26.012091 89 89 89
11.953217 8.350877 -25.936033 89 89 89
11.659091 8.113636 -25.199213 87 87 87
11.476323 7.955432 -24.707863 87 87 87
11.239130 7.760870 -24.103596 86 86 86
10.869110 7.476440 -23.220217 87 87 87
10.551899 7.230380 -22.456007 89 89 89
10.486216 7.157895 -22.230885 89 89 89
10.937500 7.437500 -23.099279 83 83 83
14.763158 9.394737 -29.178036 89 89 89
14.815789 9.394737 -29.178036 89 89 89
14.771242 9.333333 -28.987329 87 87 87
14.727273 9.272727 -28.799101 90 90 90
14.875817 9.333333 -28.987329 91 91 91
14.879478 9.302932 -28.892908 89 89 89
14.931596 9.302932 -28.892908 90 90 90
14.983713 9.302932 -28.892908 89 89 89
14.429907 8.897196 -27.632782 84 84 84
13.551021 8.326530 -25.860416 84 84 84
13.597668 8.326530 -25.860416 87 87 87
13.644315 8.326530 -25.860416 89 89 89
13.690962 8.326530 -25.860416 85 85 85
13.462857 8.160000 -25.343208 81 81 81
13.431818 8.113636 -25.199213 88 88 88
13.325843 8.022472 -24.916077 96 96 96
13.370787 8.022472 -24.916077 98 98 98
-6.270968 9.161290 -28.613300 78 78 78
-6.101266 8.987342 -28.070009 76 76 76
-6.031546 8.958990 -27.981461 72 72 72
-5.925000 8.875000 -27.719135 81 81 81
-5.875000 8.875000 -27.719135 89 89 89
-5.898734 8.987342 -28.070009 84 84 84
-5.848101 8.987342 -28.070009 82 82 82
-5.909678 9.161290 -28.613300 78 78 78
-5.858065 9.161290 -28.613300 84 84 84
-5.806452 9.161290 -28.613300 89 89 89
-5.736334 9.131833 -28.521296 91 91 91
-5.703226 9.161290 -28.613300 89 89 89
-5.651613 9.161290 -28.613300 91 91 91
-5.528662 9.044586 -28.248800 93 93 93
-5.443038 8.987342 -28.070009 95 97 96
-5.426752 9.044586 -28.248800 96 98 97
-5.552631 9.342105 -29.178036 97 97 95
-5.447369 9.342105 -29.178036 109 107 100
-1.092605 1.892072 -5.909476 199 197 186
-1.081945 1.892072 -5.909476 233 228 213
-2.044099 3.683528 -11.504699 227 223 204
-1.994885 3.631714 -11.342869 214 211 196
-1.966879 3.617834 -11.299520 174 170 162
-1.939086 3.604061 -11.256501 116 114 109
-1.906683 3.581337 -11.185527 90 89 86
-1.877039 3.563363 -11.129389 79 79 77
-1.856964 3.563363 -11.129389 79 80 77
-1.836888 3.563363 -11.129389 81 81 80
-3.743315 7.593583 -23.716906 90 90 90
-3.710456 7.613941 -23.780491 91 91 91
-3.464567 7.454068 -23.281162 92 92 92
-3.413613 7.434555 -23.220217 93 93 93
-3.362924 7.415143 -23.159590 96 96 96
-3.195980 7.135678 -22.286741 96 96 96
-3.140000 7.100000 -22.175308 92 92 92
-3.100000 7.100000 -22.175308 89 89 89
-3.060000 7.100000 -22.175308 93 93 93
-3.020000 7.100000 -22.175308 97 97 97
-2.980000 7.100000 -22.175308 98 98 98
-2.932668 7.082294 -22.120008 86 86 86
-2.885572 7.064677 -22.064983 78 78 78
-2.838710 7.047146 -22.010231 92 92 92
-2.785185 7.012346 -21.901539 97 97 97
-2.712195 6.926829 -21.634447 97 97 97
-2.666667 6.909976 -21.581808 95 95 95
-2.634146 6.926829 -21.634447 96 96 96
-2.595122 6.926829 -21.634447 97 97 97
-2.574939 6.977887 -21.793915 97 97 97
-2.535627 6.977887 -21.793915 94 94 94
-2.496315 6.977887 -21.793915 94 94 94
-2.427185 6.893204 -21.529425 92 92 92
-2.354067 6.794259 -21.220390 80 80 80
-2.310262 6.778043 -21.169744 86 86 86
-2.261283 6.745843 -21.069176 97 97 97
-2.202353 6.682353 -20.870878 96 96 96
-2.129630 6.574074 -20.532692 97 97 97
-2.073395 6.513762 -20.344318 98 98 98
-2.032037 6.498856 -20.297764 96 96 96
-2.013857 6.558891 -20.485273 97 97 97
-1.976905 6.558891 -20.485273 92 92 92
-1.939954 6.558891 -20.485273 90 90 90
-1.885584 6.498856 -20.297764 87 87 87
-1.811659 6.367713 -19.888168 77 77 77
-1.787810 6.410835 -20.022852 76 76 76
-1.446429 6.339286 -19.799381 87 87 87
-1.656250 11.093750 -34.648918 77 77 77
-1.593750 11.093750 -34.648918 86 86 86
-1.531250 11.093750 -34.648918 82 82 82
-1.468750 11.093750 -34.648918 82 82 82
-1.406250 11.093750 -34.648918 73 73 73
-1.343750 11.093750 -34.648918 88 88 88
-1.281250 11.093750 -34.648918 82 82 82
-1.218750 11.093750 -34.648918 83 83 83
-1.156250 11.093750 -34.648918 86 86 86
-1.093750 11.093750 -34.648918 90 90 90
-1.031250 11.093750 -34.648918 90 90 90
-0.968750 11.093750 -34.648918 90 90 90
-0.865672 10.597015 -33.097473 90 90 90
-0.797048 10.479705 -32.731083 91 91 91
-0.735294 10.441176 -32.610748 92 92 92
-0.676471 10.441176 -32.610748 62 62 62
-0.617647 10.441176 -32.610748 90 90 90
-0.560886 10.479705 -32.731083 91 91 91
-0.531250 11.093750 -34.648918 90 90 90
-0.468750 11.093750 -34.648918 93 93 93
-0.406250 11.093750 -34.648918 89 89 89
-0.343750 11.093750 -34.648918 93 93 93
-0.281250 11.093750 -34.648918 91 91 91
-0.218750 11.093750 -34.648918 94 94 94
-0.156250 11.093750 -34.648918 92 92 92
-0.093750 11.093750 -34.648918 87 87 87
-0.031250 11.093750 -34.648918 81 81 81
0.031250 11.093750 -34.648918 89 89 89
0.093750 11.093750 -34.648918 92 92 92
0.656250 11.093750 -34.648918 85 85 85
0.843750 11.093750 -34.648918 89 89 89
0.968750 11.093750 -34.648918 84 84 84
1.031250 11.093750 -34.648918 86 86 86
1.093750 11.093750 -34.648918 82 82 82
1.156250 11.093750 -34.648918 81 81 81
1.218750 11.093750 -34.648918 82 82 82
1.281250 11.093750 -34.648918 77 77 77
1.343750 11.093750 -34.648918 78 78 78
1.406250 11.093750 -34.648918 87 87 87
1.656250 11.093750 -34.648918 76 76 76
1.718750 11.093750 -34.648918 85 85 85
6.531250 11.093750 -34.648918 224 251 255
6.593750 11.093750 -34.648918 223 249 255
6.906250 11.093750 -34.648918 214 230 246
6.968750 11.093750 -34.648918 202 218 234
7.031250 11.093750 -34.648918 173 188 206
6.701107 10.479705 -32.731083 144 161 179
6.428070 9.964912 -31.123240 188 208 227
6.180602 9.498328 -29.665964 214 237 252
5.917460 9.015873 -28.159121 200 223 237
5.731707 8.658537 -27.043058 215 236 247
5.576470 8.352942 -26.088596 243 252 254
5.462857 8.114285 -25.343208 251 255 255
5.400560 7.955182 -24.846283 253 254 255
5.445378 7.955182 -24.846283 252 253 254
5.584045 8.091168 -25.271006 254 254 253
5.661891 8.137536 -25.415825 242 241 238
7.063830 10.070922 -31.454336 167 165 158
6.972222 9.861111 -30.799038 201 197 187
6.657895 9.342105 -29.178036 217 211 198
6.035503 8.402367 -26.242968 216 210 194
5.824363 8.045326 -25.127827 220 213 196
5.869689 8.045326 -25.127827 223 216 198
7.620438 10.364964 -32.372711 226 219 201
7.678832 10.364964 -32.372711 224 217 199
7.681159 10.289855 -32.138126 226 219 202
7.391004 9.826989 -30.692467 226 220 205
7.173333 9.466666 -29.567078 225 222 209
6.926517 9.073483 -28.339052 224 223 213
6.740741 8.765432 -27.376923 243 242 234
6.547619 8.452381 -26.399176 253 253 247
6.460641 8.279883 -25.860416 255 255 251
6.269663 7.977528 -24.916077 252 252 250
6.108696 7.717391 -24.103596 252 252 250
5.957895 7.473684 -23.342428 254 254 254
5.861183 7.300771 -22.802372 254 254 255
5.768844 7.135678 -22.286741 254 254 255
5.652812 6.943765 -21.687342 255 255 255
5.636804 6.876513 -21.477295 253 253 254
5.607656 6.794259 -21.220390 157 157 158
5.827160 7.012346 -21.901539 99 99 99
1.720791 1.701618 -5.314633 83 83 83
1.730377 1.701618 -5.314633 77 77 77
1.736842 1.698565 -5.305098 78 78 78
1.748503 1.700599 -5.311451 83 83 83
1.753883 1.696535 -5.298759 86 86 86
1.790176 1.722256 -5.379092 87 87 87
1.799879 1.722256 -5.379092 89 89 89
1.806295 1.719128 -5.369324 91 91 91
1.802885 1.706731 -5.330603 91 91 91
1.742345 1.640670 -5.124277 85 85 85
12.531250 11.093750 -34.648918 91 91 91
12.593750 11.093750 -34.648918 88 88 88
12.656250 11.093750 -34.648918 87 87 87
12.718750 11.093750 -34.648918 89 89 89
12.781250 11.093750 -34.648918 91 91 91
12.843750 11.093750 -34.648918 90 90 90
12.906250 11.093750 -34.648918 84 84 84
12.968750 11.093750 -34.648918 84 84 84
13.031250 11.093750 -34.648918 89 89 89
13.093750 11.093750 -34.648918 86 86 86
13.156250 11.093750 -34.648918 84 84 84
13.218750 11.093750 -34.648918 87 87 87
13.281250 11.093750 -34.648918 87 87 87
13.343750 11.093750 -34.648918 87 87 87
13.406250 11.093750 -34.648918 86 86 86
13.468750 11.093750 -34.648918 88 88 88
13.593750 11.093750 -34.648918 91 91 91
13.656250 11.093750 -34.648918 82 82 82
13.718750 11.093750 -34.648918 85 85 85
13.781250 11.093750 -34.648918 87 87 87
10.485208 8.402367 -26.242968 88 88 88
10.113636 8.068182 -25.199213 89 89 89
9.961002 7.910863 -24.707863 90 90 90
12.126582 8.987342 -28.070009 85 85 85
11.767584 8.685016 -27.125759 85 85 85
11.816514 8.685016 -27.125759 88 88 88
11.629850 8.477612 -26.477980 86 86 86
10.806630 7.845304 -24.503103 87 87 87
10.364116 7.493404 -23.404018 91 91 91
10.217617 7.357513 -22.979593 91 91 91
10.259068 7.357513 -22.979593 88 88 88
10.490766 7.493404 -23.404018 83 83 83
10.997245 7.823691 -24.435600 84 84 84
10.861789 7.696477 -24.038275 87 87 87
10.905149 7.696477 -24.038275 84 84 84
10.948509 7.696477 -24.038275 83 83 83
11.894428 8.328445 -26.012091 86 86 86
11.941349 8.328445 -26.012091 86 86 86
11.953217 8.304093 -25.936033 87 87 87
11.528090 7.977528 -24.916077 89 89 89
11.412743 7.867036 -24.570978 91 91 91
11.300547 7.759563 -24.235310 91 91 91
10.955145 7.493404 -23.404018 92 92 92
10.854167 7.395833 -23.099279 92 92 92
10.565657 7.171717 -22.399302 86 86 86
10.579345 7.153652 -22.342878 84 84 84
14.666667 9.281046 -28.987329 89 89 89
14.815789 9.342105 -29.178036 86 86 86
14.533762 9.131833 -28.521296 91 91 91
14.264151 8.930818 -27.893469 93 93 93
14.225000 8.875000 -27.719135 89 89 89
14.098765 8.765432 -27.376923 87 87 87
14.148149 8.765432 -27.376923 88 88 88
14.197531 8.765432 -27.376923 86 86 86
13.387283 8.208093 -25.636194 89 89 89
13.204545 8.068182 -25.199213 92 92 92
13.479769 8.208093 -25.636194 91 91 91
13.644315 8.279883 -25.860416 87 87 87
13.730994 8.304093 -25.936033 85 85 85
13.618497 8.208093 -25.636194 86 86 86
13.470085 8.091168 -25.271006 92 92 92
13.325843 7.977528 -24.916077 93 93 93
13.370787 7.977528 -24.916077 89 89 89
-6.151899 8.936708 -28.070009 90 90 90
-6.062893 8.880503 -27.893469 79 79 79
-5.975000 8.825000 -27.719135 81 81 81
-5.925000 8.825000 -27.719135 88 88 88
-5.875000 8.825000 -27.719135 88 88 88
-5.861635 8.880503 -27.893469 88 88 88
-5.829653 8.908517 -27.981461 86 86 86
-5.815873 8.965079 -28.159121 85 85 85
-5.839228 9.080386 -28.521296 89 89 89
-5.806452 9.109677 -28.613300 87 87 87
-5.736334 9.080386 -28.521296 84 84 84
-5.684887 9.080386 -28.521296 83 83 83
-5.615385 9.051282 -28.429882 74 74 74
-5.493671 8.936708 -28.070009 79 79 79
-5.391850 8.852665 -27.806028 85 87 86
-5.409524 8.965079 -28.159121 84 86 85
-5.552631 9.289474 -29.178036 84 84 82
-5.500000 9.289474 -29.178036 77 76 73
-5.429508 9.259016 -29.082371 108 105 99
-1.099196 1.892761 -5.945123 197 195 183
-1.088472 1.892761 -5.945123 230 225 210
-2.038810 3.653299 -11.474933 228 224 205
-1.989796 3.602041 -11.313932 216 213 199
-1.961881 3.588310 -11.270804 176 173 163
-1.926860 3.561160 -11.185527 126 124 118
-1.901887 3.552201 -11.157388 96 96 91
-1.874687 3.538847 -11.115442 92 93 90
-1.852315 3.534418 -11.101531 91 92 89
-1.834587 3.538847 -11.115442 82 83 82
-3.806452 7.591398 -23.844418 89 89 89
-3.773585 7.611860 -23.908688 86 86 86
-3.730458 7.611860 -23.908688 85 85 85
-3.667560 7.571045 -23.780491 84 84 84
-3.595745 7.510638 -23.590754 87 87 87
-3.497382 7.392670 -23.220217 85 85 85
-3.464567 7.412074 -23.281162 82 82 82
-3.404700 7.373368 -23.159590 81 81 81
-3.319588 7.278350 -22.861141 81 81 81
-3.180000 7.060000 -22.175308 81 81 81
-3.140000 7.060000 -22.175308 77 77 77
-3.100000 7.060000 -22.175308 75 75 75
-3.060000 7.060000 -22.175308 83 83 83
-3.020000 7.060000 -22.175308 85 85 85
-2.972569 7.042394 -22.120008 85 85 85
-2.925373 7.024876 -22.064983 82 82 82
-2.864197 6.972839 -21.901539 75 75 75
-2.810811 6.938575 -21.793915 83 83 83
-2.751220 6.887805 -21.634447 89 89 89
-2.705596 6.871046 -21.581808 90 90 90
-2.666667 6.871046 -21.581808 90 90 90
-2.621359 6.854369 -21.529425 91 91 91
-2.588808 6.871046 -21.581808 96 96 96
-2.556098 6.887805 -21.634447 98 98 98
-2.504854 6.854369 -21.529425 98 98 98
-2.460048 6.837772 -21.477295 98 98 98
-2.398082 6.772182 -21.271278 90 90 90
-2.348449 6.739857 -21.169744 80 80 80
-2.299287 6.707839 -21.069176 82 82 82
-2.245283 6.660378 -20.920101 91 91 91
-2.166667 6.537037 -20.532692 96 96 96
-2.110092 6.477064 -20.344318 97 97 97
-2.049887 6.403628 -20.113657 97 97 97
-2.004515 6.374718 -20.022852 95 95 95
-1.990868 6.447489 -20.251423 95 95 95
-1.958810 6.462243 -20.297764 97 97 97
-1.922197 6.462243 -20.297764 97 97 97
-1.855856 6.360360 -19.977755 94 94 94
-1.811659 6.331839 -19.888168 87 87 87
-1.779775 6.346067 -19.932861 77 77 77
-1.743820 6.346067 -19.932861 96 96 96
-1.440000 6.275556 -19.711384 90 90 90
-1.593750 11.031250 -34.648918 90 90 90
-1.531250 11.031250 -34.648918 92 92 92
-1.468750 11.031250 -34.648918 90 90 90
-1.406250 11.031250 -34.648918 88 88 88
-1.343750 11.031250 -34.648918 91 91 91
-1.281250 11.031250 -34.648918 87 87 87
-1.218750 11.031250 -34.648918 88 88 88
-1.156250 11.031250 -34.648918 81 81 81
-1.093750 11.031250 -34.648918 82 82 82
-1.031250 11.031250 -34.648918 72 72 72
-0.968750 11.031250 -34.648918 81 81 81
-0.872180 10.616541 -33.346329 83 83 83
-0.805970 10.537313 -33.097473 82 82 82
-0.740741 10.459259 -32.852306 84 84 84
-0.676471 10.382353 -32.610748 71 71 71
-0.617647 10.382353 -32.610748 79 79 79
-0.560886 10.420664 -32.731083 77 77 77
-0.531250 11.031250 -34.648918 82 82 82
-0.468750 11.031250 -34.648918 82 82 82
-0.281250 11.031250 -34.648918 90 90 90
-0.218750 11.031250 -34.648918 90 90 90
-0.156250 11.031250 -34.648918 93 93 93
-0.093750 11.031250 -34.648918 82 82 82
1.031250 11.031250 -34.648918 91 91 91
1.093750 11.031250 -34.648918 94 94 94
1.156250 11.031250 -34.648918 95 95 95
1.218750 11.031250 -34.648918 92 92 92
1.281250 11.031250 -34.648918 78 78 78
1.343750 11.031250 -34.648918 86 86 86
1.406250 11.031250 -34.648918 92 92 92
1.468750 11.031250 -34.648918 91 91 91
1.531250 11.031250 -34.648918 93 93 93
6.593750 11.031250 -34.648918 221 247 254
6.843750 11.031250 -34.648918 223 246 255
6.906250 11.031250 -34.648918 219 238 252
6.701107 10.420664 -32.731083 159 177 191
6.127090 9.444816 -29.665964 146 165 180
5.866667 8.965079 -28.159121 197 218 234
5.682927 8.609756 -27.043058 213 237 253
5.513196 8.281525 -26.012091 199 222 236
5.340845 7.954929 -24.986261 236 247 251
5.224044 7.715847 -24.235310 251 255 255
5.127660 7.510638 -23.590754 252 253 255
5.170213 7.510638 -23.590754 254 255 255
5.283019 7.611860 -23.908688 254 254 253
5.326146 7.611860 -23.908688 255 255 250
5.707736 8.091691 -25.415825 189 186 178
5.940828 8.355030 -26.242968 210 206 195
5.988166 8.355030 -26.242968 232 227 212
5.714286 7.910364 -24.846283 231 226 208
5.468085 7.510638 -23.590754 230 224 205
5.180000 7.060000 -22.175308 225 219 197
7.036789 9.444816 -29.665964 218 212 190
7.143813 9.444816 -29.665964 211 205 186
6.941936 9.109677 -28.613300 209 205 189
6.549849 8.531722 -26.797955 206 204 190
6.500000 8.404762 -26.399176 215 213 200
6.413994 8.233236 -25.860416 243 242 232
6.224719 7.932584 -24.916077 255 255 248
6.065217 7.673913 -24.103596 255 255 251
5.884817 7.392670 -23.220217 255 255 252
5.760814 7.185750 -22.570288 255 255 253
5.728643 7.095478 -22.286741 254 254 253
5.613692 6.904645 -21.687342 254 254 254
5.504762 6.723810 -21.119341 254 254 255
5.451991 6.613583 -20.773123 255 255 255
5.451163 6.567442 -20.628193 230 230 230
5.488372 6.567442 -20.628193 141 141 141
1.611208 1.648570 -5.178122 96 96 96
1.708507 1.679952 -5.276694 93 93 93
1.717004 1.678954 -5.273557 91 91 91
1.725490 1.677956 -5.270424 88 88 88
1.726789 1.670018 -5.245490 87 87 87
1.736251 1.670018 -5.245490 86 86 86
1.772973 1.696096 -5.327401 85 85 85
1.793353 1.706344 -5.359591 84 84 84
1.794348 1.698136 -5.333808 84 84 84
1.782531 1.677956 -5.270424 86 86 86
1.739331 1.628604 -5.115411 86 86 86
1.751589 1.631427 -5.124277 81 81 81
1.763889 1.634259 -5.133173 78 78 78
1.773148 1.634259 -5.133173 81 81 81
1.779318 1.631427 -5.124277 84 84 84
1.781358 1.624856 -5.103638 86 86 86
12.531250 11.031250 -34.648918 88 88 88
12.593750 11.031250 -34.648918 90 90 90
12.656250 11.031250 -34.648918 89 89 89
12.718750 11.031250 -34.648918 89 89 89
12.781250 11.031250 -34.648918 91 91 91
12.843750 11.031250 -34.648918 91 91 91
12.906250 11.031250 -34.648918 85 85 85
12.968750 11.031250 -34.648918 80 80 80
13.031250 11.031250 -34.648918 85 85 85
13.093750 11.031250 -34.648918 91 91 91
13.156250 11.031250 -34.648918 90 90 90
13.218750 11.031250 -34.648918 89 89 89
13.281250 11.031250 -34.648918 90 90 90
13.343750 11.031250 -34.648918 90 90 90
13.406250 11.031250 -34.648918 86 86 86
13.468750 11.031250 -34.648918 84 84 84
13.531250 11.031250 -34.648918 87 87 87
13.593750 11.031250 -34.648918 90 90 90
13.656250 11.031250 -34.648918 86 86 86
13.718750 11.031250 -34.648918 86 86 86
13.781250 11.031250 -34.648918 88 88 88
11.469255 9.139158 -28.705900 90 90 90
11.159875 8.852665 -27.806028 90 90 90
11.790770 8.689231 -27.292686 87 87 87
11.767584 8.636086 -27.125759 86 86 86
11.816514 8.636086 -27.125759 84 84 84
11.793313 8.583587 -26.960861 86 86 86
11.425220 8.281525 -26.012091 90 90 90
11.050847 7.977401 -25.056845 92 92 92
10.673913 7.673913 -24.103596 90 90 90
10.517333 7.530667 -23.653662 86 86 86
10.448549 7.451187 -23.404018 83 83 83
10.745946 7.632432 -23.973305 89 89 89
10.907104 7.715847 -24.235310 91 91 91
11.010989 7.758242 -24.368469 82 82 82
11.054945 7.758242 -24.368469 83 83 83
10.948509 7.653117 -24.038275 88 88 88
11.266666 7.844444 -24.639231 85 85 85
11.906433 8.257310 -25.936033 85 85 85
11.953217 8.257310 -25.936033 88 88 88
11.528090 7.932584 -24.916077 91 91 91
11.476323 7.866295 -24.707863 93 93 93
11.425414 7.801105 -24.503103 94 94 94
11.282609 7.673913 -24.103596 91 91 91
10.968421 7.431579 -23.342428 88 88 88
10.895833 7.354167 -23.099279 84 84 84
10.606061 7.131313 -22.399302 88 88 88
14.425806 9.109677 -28.613300 85 85 85
14.477419 9.109677 -28.613300 82 82 82
14.482315 9.080386 -28.521296 90 90 90
14.213837 8.880503 -27.893469 91 91 91
14.086957 8.770186 -27.546967 87 87 87
13.920489 8.636086 -27.125759 86 86 86
13.926829 8.609756 -27.043058 87 87 87
13.522124 8.330383 -26.165554 89 89 89
13.180515 8.091691 -25.415825 89 89 89
13.226361 8.091691 -25.415825 91 91 91
12.974790 7.910364 -24.846283 94 94 94
13.019608 7.910364 -24.846283 95 95 95
13.064425 7.910364 -24.846283 93 93 93
13.684211 8.257310 -25.936033 84 84 84
14.102102 8.480480 -26.637007 84 84 84
13.899705 8.330383 -26.165554 88 88 88
13.744186 8.209302 -25.785242 88 88 88
13.439094 8.000000 -25.127827 83 83 83
13.484419 8.000000 -25.127827 76 76 76
-6.132492 8.858045 -27.981461 92 92 92
-6.062893 8.830189 -27.893469 83 83 83
-6.012578 8.830189 -27.893469 82 82 82
-5.962264 8.830189 -27.893469 92 92 92
-5.911950 8.830189 -27.893469 94 94 94
-5.898734 8.886076 -28.070009 93 93 93
-5.848101 8.886076 -28.070009 90 90 90
-5.815873 8.914286 -28.159121 89 89 89
-5.801917 8.971246 -28.339052 93 93 93
-5.787781 9.028939 -28.521296 97 97 97
-5.736334 9.028939 -28.521296 94 94 94
-5.684887 9.028939 -28.521296 90 90 90
-5.579618 8.942676 -28.248800 75 75 75
-5.459119 8.830189 -27.893469 90 90 90
-5.391850 8.802507 -27.806028 90 92 91
-5.341693 8.802507 -27.806028 90 92 91
-5.552631 9.236842 -29.178036 93 92 91
-5.518152 9.267326 -29.274334 92 91 88
-1.117409 1.894737 -5.985238 117 114 108
-1.101410 1.885829 -5.957101 203 200 189
-1.093603 1.890909 -5.973147 232 227 212
-2.036176 3.627907 -11.460107 229 225 206
-1.989796 3.581633 -11.313932 223 220 205
-1.959391 3.563452 -11.256501 186 182 172
-1.924433 3.536524 -11.171439 134 132 126
-1.897114 3.523212 -11.129389 102 102 97
-1.874687 3.518797 -11.115442 93 93 90
-1.850000 3.510000 -11.087654 93 94 91
-1.830000 3.510000 -11.087654 90 90 89
-3.773585 7.568733 -23.908688 95 95 95
-3.730458 7.568733 -23.908688 96 96 96
-3.667560 7.528150 -23.780491 92 92 92
-3.567282 7.408971 -23.404018 90 90 90
-3.488251 7.331593 -23.159590 93 93 93
-3.455497 7.350785 -23.220217 95 95 95
-3.395833 7.312500 -23.099279 93 93 93
-3.319588 7.237113 -22.861141 86 86 86
-3.187970 7.037594 -22.230885 86 86 86
-3.140000 7.020000 -22.175308 80 80 80
-3.100000 7.020000 -22.175308 80 80 80
-3.060000 7.020000 -22.175308 91 91 91
-3.020000 7.020000 -22.175308 91 91 91
-2.965174 6.985075 -22.064983 91 91 91
-2.903704 6.933333 -21.901539 91 91 91
-2.864197 6.933333 -21.901539 85 85 85
-2.810811 6.899263 -21.793915 86 86 86
-2.744525 6.832117 -21.581808 87 87 87
-2.705596 6.832117 -21.581808 85 85 85
-2.660194 6.815534 -21.529425 82 82 82
-2.608696 6.782609 -21.425419 74 74 74
-2.570048 6.782609 -21.425419 73 73 73
-2.537530 6.799031 -21.477295 84 84 84
-2.498789 6.799031 -21.477295 85 85 85
-2.448193 6.766265 -21.373791 86 86 86
-2.403846 6.750000 -21.322411 80 80 80
-2.359712 6.733813 -21.271278 77 77 77
-2.310262 6.701671 -21.169744 77 77 77
-2.261283 6.669834 -21.069176 80 80 80
-2.166667 6.500000 -20.532692 83 83 83
-2.110092 6.440367 -20.344318 84 84 84
-2.040632 6.338601 -20.022852 85 85 85
-2.004515 6.338601 -20.022852 84 84 84
-1.968397 6.338601 -20.022852 83 83 83
-1.949886 6.396355 -20.205292 92 92 92
-1.913440 6.396355 -20.205292 97 97 97
-1.855856 6.324324 -19.977755 93 93 93
-1.815730 6.310112 -19.932861 84 84 84
-1.779775 6.310112 -19.932861 72 72 72
-1.739910 6.295964 -19.888168 91 91 91
-1.704036 6.295964 -19.888168 91 91 91
-1.660714 6.267857 -19.799381 97 97 97
-1.625000 6.267857 -19.799381 96 96 96
-1.475556 6.240000 -19.711384 98 98 98
-1.408696 6.104348 -19.282877 94 94 94
-1.370933 6.091106 -19.241047 91 91 91
-1.327586 6.051724 -19.116644 80 80 80
-1.593750 10.968750 -34.648918 92 92 92
-1.531250 10.968750 -34.648918 99 99 99
-1.468750 10.968750 -34.648918 94 94 94
-1.406250 10.968750 -34.648918 96 96 96
-1.343750 10.968750 -34.648918 94 94 94
-1.281250 10.968750 -34.648918 94 94 94
-1.218750 10.968750 -34.648918 97 97 97
-1.156250 10.968750 -34.648918 91 91 91
-1.093750 10.968750 -34.648918 88 88 88
-1.031250 10.968750 -34.648918 70 70 70
-0.968750 10.968750 -34.648918 86 86 86
-0.906250 10.968750 -34.648918 90 90 90
-0.808989 10.516854 -33.221436 93 93 93
-0.746269 10.477612 -33.097473 91 91 91
-0.684015 10.438662 -32.974434 94 94 94
-0.624535 10.438662 -32.974434 92 92 92
-0.593750 10.968750 -34.648918 92 92 92
-0.531250 10.968750 -34.648918 90 90 90
-0.468750 10.968750 -34.648918 88 88 88
-0.406250 10.968750 -34.648918 81 81 81
-0.343750 10.968750 -34.648918 75 75 75
-0.281250 10.968750 -34.648918 85 85 85
-0.218750 10.968750 -34.648918 84 84 84
-0.156250 10.968750 -34.648918 85 85 85
-0.093750 10.968750 -34.648918 82 82 82
0.281250 10.968750 -34.648918 85 85 85
0.406250 10.968750 -34.648918 86 86 86
0.468750 10.968750 -34.648918 85 85 85
0.906250 10.968750 -34.648918 89 89 89
0.968750 10.968750 -34.648918 92 92 92
1.031250 10.968750 -34.648918 91 91 91
1.093750 10.968750 -34.648918 94 94 94
1.156250 10.968750 -34.648918 89 89 89
1.218750 10.968750 -34.648918 86 86 86
1.281250 10.968750 -34.648918 81 81 81
1.343750 10.968750 -34.648918 85 85 85
1.406250 10.968750 -34.648918 89 89 89
1.468750 10.968750 -34.648918 92 92 92
6.593750 10.968750 -34.648918 210 231 243
6.656250 10.968750 -34.648918 211 232 245
6.718750 10.968750 -34.648918 212 234 249
6.781250 10.968750 -34.648918 214 237 253
6.843750 10.968750 -34.648918 214 237 253
6.906250 10.968750 -34.648918 220 241 253
7.093750 10.968750 -34.648918 203 219 232
6.127090 9.391304 -29.665964 137 153 168
5.668712 8.613497 -27.208967 171 189 206
5.434402 8.186589 -25.860416 203 224 247
5.251397 7.843575 -24.776880 205 224 242
5.124324 7.589189 -23.973305 221 231 240
5.005236 7.350785 -23.220217 247 251 252
4.930946 7.181586 -22.685738 253 255 255
5.023256 7.255814 -22.920214 253 255 254
5.130890 7.350785 -23.220217 253 253 252
5.326146 7.568733 -23.908688 252 252 248
5.893491 8.307693 -26.242968 226 223 217
5.940828 8.307693 -26.242968 187 185 174
5.988166 8.307693 -26.242968 227 224 210
5.498652 7.568733 -23.908688 241 237 219
5.140000 7.020000 -22.175308 245 238 219
4.573951 6.198676 -19.580845 243 237 216
4.609272 6.198676 -19.580845 243 236 215
6.725000 8.775000 -27.719135 243 237 218
6.452381 8.357142 -26.399176 241 237 221
6.367347 8.186589 -25.860416 238 234 221
6.232295 7.954674 -25.127827 243 240 228
6.087912 7.714286 -24.368469 252 251 243
5.842932 7.350785 -23.220217 253 252 247
5.720102 7.145038 -22.570288 254 254 249
5.674185 7.037594 -22.230885 254 254 252
5.574572 6.865526 -21.687342 255 255 254
5.466667 6.685714 -21.119341 255 255 255
5.414520 6.576112 -20.773123 254 254 255
5.339449 6.440367 -20.344318 255 255 255
5.303167 6.352941 -20.068151 254 254 254
5.267857 6.267857 -19.799381 202 202 202
5.303571 6.267857 -19.799381 119 119 117
1.597206 1.634459 -5.163052 96 96 96
1.607455 1.635411 -5.166059 96 96 96
1.619603 1.638273 -5.175101 96 96 96
1.697979 1.669441 -5.273557 81 81 81
1.694395 1.656637 -5.233111 92 92 92
1.703835 1.656637 -5.233111 96 96 96
1.712264 1.655660 -5.230025 95 95 95
1.720684 1.654685 -5.226943 93 93 93
1.730112 1.654685 -5.226943 94 94 94
1.744681 1.659575 -5.242390 91 91 91
1.767719 1.672424 -5.282980 87 87 87
1.775134 1.670434 -5.276694 84 84 84
1.780415 1.666469 -5.264168 84 84 84
1.735328 1.615650 -5.103638 89 89 89
1.751589 1.622184 -5.124277 91 91 91
1.763889 1.625000 -5.133173 90 90 90
1.772123 1.624060 -5.130204 91 91 91
1.772152 1.615650 -5.103638 92 92 92
1.778288 1.612866 -5.094844 90 90 90
1.786452 1.611940 -5.091919 85 85 85
1.793578 1.610092 -5.086080 81 81 81
1.796571 1.604571 -5.068642 85 85 85
1.811927 1.610092 -5.086080 87 87 87
12.593750 10.968750 -34.648918 86 86 86
12.656250 10.968750 -34.648918 86 86 86
12.718750 10.968750 -34.648918 84 84 84
12.781250 10.968750 -34.648918 84 84 84
12.843750 10.968750 -34.648918 85 85 85
12.906250 10.968750 -34.648918 85 85 85
12.968750 10.968750 -34.648918 80 80 80
13.031250 10.968750 -34.648918 79 79 79
13.093750 10.968750 -34.648918 86 86 86
13.156250 10.968750 -34.648918 88 88 88
13.218750 10.968750 -34.648918 87 87 87
13.281250 10.968750 -34.648918 89 89 89
13.343750 10.968750 -34.648918 90 90 90
13.406250 10.968750 -34.648918 87 87 87
13.468750 10.968750 -34.648918 83 83 83
13.531250 10.968750 -34.648918 84 84 84
13.593750 10.968750 -34.648918 88 88 88
13.656250 10.968750 -34.648918 88 88 88
13.718750 10.968750 -34.648918 88 88 88
12.000000 9.551021 -30.170486 88 88 88
11.469255 9.087379 -28.705900 89 89 89
11.265822 8.886076 -28.070009 88 88 88
11.105590 8.720497 -27.546967 87 87 87
10.833333 8.357142 -26.399176 89 89 89
10.848664 8.332344 -26.320841 89 89 89
10.831859 8.283186 -26.165554 88 88 88
10.879056 8.283186 -26.165554 89 89 89
10.830409 8.210526 -25.936033 90 90 90
10.720461 8.092219 -25.562315 90 90 90
10.553673 7.932203 -25.056845 88 88 88
10.509804 7.865546 -24.846283 87 87 87
12.025316 8.886076 -28.070009 88 88 88
11.357142 8.357142 -26.399176 86 86 86
11.404762 8.357142 -26.399176 86 86 86
11.520958 8.407186 -26.557255 87 87 87
11.534328 8.382090 -26.477980 88 88 88
11.378299 8.234604 -26.012091 89 89 89
11.163323 8.045845 -25.415825 89 89 89
10.806630 7.756906 -24.503103 88 88 88
10.644986 7.609756 -24.038275 87 87 87
10.433863 7.428571 -23.465935 88 88 88
10.448549 7.408971 -23.404018 92 92 92
10.518518 7.428571 -23.465935 90 90 90
10.847826 7.630435 -24.103596 82 82 82
10.950820 7.672131 -24.235310 82 82 82
11.054945 7.714286 -24.368469 87 87 87
10.948509 7.609756 -24.038275 84 84 84
10.991870 7.609756 -24.038275 83 83 83
11.438202 7.887640 -24.916077 88 88 88
11.725715 8.022857 -25.343208 95 95 95
11.605634 7.909859 -24.986261 92 92 92
11.617977 7.887640 -24.916077 89 89 89
11.438017 7.735537 -24.435600 87 87 87
10.997361 7.408971 -23.404018 85 85 85
10.592405 7.108861 -22.456007 89 89 89
10.579345 7.073048 -22.342878 89 89 89
14.477419 9.058064 -28.613300 87 87 87
14.298412 8.914286 -28.159121 91 91 91
14.213837 8.830189 -27.893469 86 86 86
14.086957 8.720497 -27.546967 84 84 84
13.920489 8.587156 -27.125759 87 87 87
13.676646 8.407186 -26.557255 90 90 90
13.482353 8.258823 -26.088596 92 92 92
13.105413 8.000000 -25.271006 95 95 95
13.150997 8.000000 -25.271006 96 96 96
12.974790 7.865546 -24.846283 95 95 95
12.769231 7.714286 -24.368469 93 93 93
12.778082 7.693151 -24.301706 86 86 86
14.054054 8.432432 -26.637007 82 82 82
14.144578 8.457831 -26.717237 87 87 87
14.150150 8.432432 -26.637007 88 88 88
13.744186 8.162790 -25.785242 85 85 85
13.710982 8.115607 -25.636194 80 80 80
-6.043887 8.752351 -27.806028 79 79 79
-6.012578 8.779874 -27.893469 79 79 79
-5.962264 8.779874 -27.893469 89 89 89
-6.025641 8.948718 -28.429882 91 91 91
-5.993569 8.977492 -28.521296 92 92 92
-5.866667 8.863492 -28.159121 89 89 89
-5.815873 8.863492 -28.159121 95 95 95
-5.746835 8.835443 -28.070009 93 93 93
-5.787781 8.977492 -28.521296 93 93 93
-5.736334 8.977492 -28.521296 90 90 90
-5.630573 8.891720 -28.248800 86 86 86
-5.509434 8.779874 -27.893469 78 78 78
-5.459119 8.779874 -27.893469 87 87 87
-5.375000 8.725000 -27.719135 95 96 96
-5.358490 8.779874 -27.893469 95 97 96
-5.570957 9.214521 -29.274334 97 96 97
-5.518152 9.214521 -29.274334 93 92 91
-1.120433 1.889039 -6.001436 119 117 111
-1.105866 1.882670 -5.981202 201 198 187
-1.098782 1.889039 -6.001436 229 224 209
-2.036176 3.607235 -11.460107 226 222 203
-1.989796 3.561224 -11.313932 217 214 199
-1.959391 3.543147 -11.256501 183 179 169
-1.924433 3.516373 -11.171439 129 127 121
-1.899498 3.507538 -11.143371 95 95 90
-1.877039 3.503137 -11.129389 88 88 85
-1.852315 3.494368 -11.101531 88 89 86
-1.834587 3.498747 -11.115442 85 85 84
-3.773585 7.525607 -23.908688 92 92 92
-3.740541 7.545946 -23.973305 89 89 89
-3.667560 7.485255 -23.780491 87 87 87
-3.567282 7.366755 -23.404018 92 92 92
-3.479167 7.270833 -23.099279 93 93 93
-3.446475 7.289817 -23.159590 94 94 94
-3.395833 7.270833 -23.099279 93 93 93
-3.319588 7.195876 -22.861141 89 89 89
-3.204030 7.032745 -22.342878 90 90 90
-3.147870 6.997494 -22.230885 82 82 82
-3.107769 6.997494 -22.230885 82 82 82
-3.067669 6.997494 -22.230885 93 93 93
-3.027569 6.997494 -22.230885 93 93 93
-2.980000 6.980000 -22.175308 93 93 93
-2.903704 6.893827 -21.901539 93 93 93
-2.864197 6.893827 -21.901539 93 93 93
-2.810811 6.859951 -21.793915 94 94 94
-2.744525 6.793187 -21.581808 95 95 95
-2.705596 6.793187 -21.581808 95 95 95
-2.647343 6.743961 -21.425419 89 89 89
-2.602410 6.727711 -21.373791 76 76 76
-2.563855 6.727711 -21.373791 76 76 76
-2.525301 6.727711 -21.373791 93 93 93
-2.486747 6.727711 -21.373791 93 93 93
-2.442308 6.711538 -21.322411 93 93 93
-2.403846 6.711538 -21.322411 94 94 94
-2.359712 6.695444 -21.271278 90 90 90
-2.315789 6.679426 -21.220390 90 90 90
-2.255924 6.616114 -21.019249 90 90 90
-2.166667 6.462963 -20.532692 88 88 88
-2.110092 6.403670 -20.344318 86 86 86
-2.045249 6.316742 -20.068151 86 86 86
-2.004515 6.302483 -20.022852 81 81 81
-1.972851 6.316742 -20.068151 74 74 74
-1.941043 6.331066 -20.113657 82 82 82
-1.904762 6.331066 -20.113657 86 86 86
-1.855856 6.288288 -19.977755 82 82 82
-1.815730 6.274158 -19.932861 83 83 83
-1.779775 6.274158 -19.932861 81 81 81
-1.736018 6.246085 -19.843676 79 79 79
-1.696429 6.232143 -19.799381 81 81 81
-1.657016 6.218263 -19.755285 79 79 79
-1.621381 6.218263 -19.755285 80 80 80
-1.589286 6.232143 -19.799381 78 78 78
-1.517857 6.232143 -19.799381 83 83 83
-1.475556 6.204444 -19.711384 87 87 87
-1.405640 6.056399 -19.241047 89 89 89
-1.362069 6.017241 -19.116644 86 86 86
-1.307856 5.927813 -18.832533 80 80 80
-1.271186 5.915254 -18.792633 80 80 80
-1.219207 5.828810 -18.518002 90 90 90
-1.522388 10.417911 -33.097473 94 94 94
-1.531250 10.906250 -34.648918 101 101 101
-1.468750 10.906250 -34.648918 97 97 97
-1.406250 10.906250 -34.648918 92 92 92
-1.343750 10.906250 -34.648918 99 99 99
-1.281250 10.906250 -34.648918 97 97 97
-1.218750 10.906250 -34.648918 98 98 98
-1.156250 10.906250 -34.648918 95 95 95
-1.093750 10.906250 -34.648918 92 92 92
-1.031250 10.906250 -34.648918 80 80 80
-0.968750 10.906250 -34.648918 84 84 84
-0.875472 10.535849 -33.472164 94 94 94
-0.808989 10.456929 -33.221436 102 102 102
-0.746269 10.417911 -33.097473 96 96 96
-0.684015 10.379182 -32.974434 97 97 97
-0.624535 10.379182 -32.974434 98 98 98
-0.569288 10.456929 -33.221436 96 96 96
-0.531250 10.906250 -34.648918 95 95 95
-0.468750 10.906250 -34.648918 91 91 91
-0.406250 10.906250 -34.648918 83 83 83
-0.343750 10.906250 -34.648918 72 72 72
-0.281250 10.906250 -34.648918 89 89 89
-0.218750 10.906250 -34.648918 96 96 96
-0.156250 10.906250 -34.648918 96 96 96
-0.093750 10.906250 -34.648918 95 95 95
-0.031250 10.906250 -34.648918 97 97 97
0.031250 10.906250 -34.648918 95 95 95
0.218750 10.906250 -34.648918 93 93 93
0.281250 10.906250 -34.648918 88 88 88
0.343750 10.906250 -34.648918 76 76 76
0.406250 10.906250 -34.648918 89 89 89
0.468750 10.906250 -34.648918 85 85 85
0.531250 10.906250 -34.648918 90 90 90
0.593750 10.906250 -34.648918 87 87 87
0.656250 10.906250 -34.648918 84 84 84
0.664260 10.079422 -32.022106 83 83 83
0.722022 10.079422 -32.022106 87 87 87
0.843750 10.906250 -34.648918 83 83 83
0.906250 10.906250 -34.648918 78 78 78
0.968750 10.906250 -34.648918 76 76 76
1.031250 10.906250 -34.648918 74 74 74
1.093750 10.906250 -34.648918 80 80 80
1.156250 10.906250 -34.648918 81 81 81
1.218750 10.906250 -34.648918 81 81 81
1.281250 10.906250 -34.648918 82 82 82
1.343750 10.906250 -34.648918 80 80 80
1.406250 10.906250 -34.648918 77 77 77
1.468750 10.906250 -34.648918 84 84 84
1.531250 10.906250 -34.648918 85 85 85
1.593750 10.906250 -34.648918 84 84 84
1.656250 10.906250 -34.648918 88 88 88
0.481982 1.572072 -4.994439 255 255 251
0.490991 1.572072 -4.994439 254 253 247
0.500000 1.572072 -4.994439 244 241 233
