ply
        format ascii 1.0
        element vertex 81683
        property float x
        property float y
        property float z
        property uchar red
        property uchar green
        property uchar blue
        end_header
-0.967890 2.197248 -5.086080 128 63 61
-0.958166 2.195989 -5.083165 121 57 55
-0.945205 2.187215 -5.062856 117 54 51
-0.935539 2.185967 -5.059968 121 59 56
-0.910152 2.235706 -5.175101 125 69 65
-0.900292 2.234402 -5.172083 122 68 62
-0.890443 2.233100 -5.169069 122 71 61
-0.881119 2.233100 -5.169069 123 73 61
-0.872303 2.234402 -5.172083 121 72 58
-0.878338 2.274184 -5.264168 121 72 57
-0.868843 2.274184 -5.264168 124 74 60
-0.854782 2.262102 -5.236200 131 79 66
-0.844340 2.259434 -5.230025 139 86 73
-0.833431 2.255444 -5.220790 138 84 72
-0.823045 2.252792 -5.214652 132 77 65
-0.796776 2.206102 -5.106576 131 74 63
-0.803760 2.251469 -5.211588 129 74 64
-0.797640 2.260767 -5.233111 130 76 66
-0.788666 2.262102 -5.236200 122 68 58
-0.778761 2.260767 -5.233111 107 54 44
-0.769322 2.260767 -5.233111 103 51 40
-0.774038 2.302885 -5.330603 109 57 46
-0.764423 2.302885 -5.330603 114 61 50
-0.754808 2.302885 -5.330603 117 63 53
-0.740741 2.289128 -5.298759 123 69 59
-0.720848 2.256773 -5.223865 129 74 63
-0.706433 2.240936 -5.187206 132 75 65
-0.693426 2.229203 -5.160048 134 76 66
-0.680950 2.218877 -5.136146 136 78 67
-0.670133 2.213749 -5.124277 134 76 65
-0.658607 2.206102 -5.106576 131 74 60
-0.647532 2.199770 -5.091919 128 72 57
-0.637615 2.197248 -5.086080 130 74 57
-0.628440 2.197248 -5.086080 131 75 58
-0.618203 2.193475 -5.077346 130 74 57
-0.609044 2.193475 -5.077346 133 77 60
-0.611079 2.234402 -5.172083 134 78 61
-0.601749 2.234402 -5.172083 130 74 57
-0.577273 2.177273 -5.039843 130 73 58
-0.566251 2.169875 -5.022720 132 74 60
-0.557191 2.169875 -5.022720 132 74 61
-0.545045 2.157658 -4.994439 133 75 63
-0.539377 2.171105 -5.025566 130 72 60
-0.540416 2.212471 -5.121318 126 68 55
-0.573566 2.389027 -5.530002 124 66 52
-0.563591 2.389027 -5.530002 124 67 52
-0.513592 2.216310 -5.130204 126 69 51
-0.504046 2.215029 -5.127239 124 67 48
-0.495370 2.217592 -5.133173 126 68 50
-0.486674 2.220162 -5.139121 128 69 53
-0.478236 2.224028 -5.148069 128 69 54
-0.471137 2.234402 -5.172083 123 63 52
-0.462617 2.238318 -5.181147 124 63 54
-0.453271 2.238318 -5.181147 129 69 60
-0.444444 2.240936 -5.187206 131 71 61
-0.435852 2.244874 -5.196323 130 70 60
-0.426230 2.243560 -5.193281 125 67 55
-0.416131 2.239626 -5.184175 126 66 54
-0.406542 2.238318 -5.181147 125 66 52
-0.396733 2.235706 -5.175101 127 65 50
-0.387398 2.235706 -5.175101 124 65 53
-0.376744 2.227907 -5.157048 124 68 61
-0.366589 2.222738 -5.145083 136 81 78
-0.356481 2.217592 -5.133173 138 84 84
-0.347021 2.216310 -5.130204 129 75 77
-0.337377 2.213749 -5.124277 125 75 76
-0.319820 2.157658 -4.994439 142 97 98
-0.310811 2.157658 -4.994439 116 78 78
-0.301802 2.157658 -4.994439 97 76 76
-0.292793 2.157658 -4.994439 86 89 89
-0.283784 2.157658 -4.994439 86 107 111
-0.276331 2.169875 -5.022720 83 118 125
-0.267877 2.174801 -5.034122 86 121 136
-0.260720 2.190966 -5.071540 100 121 144
-0.251860 2.193475 -5.077346 111 117 145
-0.242424 2.190966 -5.071540 106 99 127
-0.232479 2.183476 -5.054201 109 90 116
-0.222981 2.179750 -5.045576 123 89 113
-0.213636 2.177273 -5.039843 118 75 94
-0.204313 2.174801 -5.034122 98 51 67
-0.194680 2.168648 -5.019877 89 45 60
-0.194774 2.275534 -5.267294 71 34 51
-0.185604 2.279595 -5.276694 63 34 52
-0.176400 2.283671 -5.286128 54 31 51
-0.169594 2.321018 -5.372576 51 32 51
-0.160194 2.325243 -5.382356 52 35 51
-0.148949 2.301502 -5.327401 53 39 54
-0.130988 2.323833 -5.379092 56 45 61
-0.123609 2.368356 -5.482152 58 45 65
-0.112676 2.346601 -5.431796 55 42 62
-0.103004 2.349479 -5.438457 53 40 58
-0.093366 2.353808 -5.448479 54 43 57
-0.084420 2.378647 -5.505973 59 48 55
-0.074166 2.368356 -5.482152 63 54 53
-0.064277 2.368356 -5.482152 67 60 51
-0.054388 2.368356 -5.482152 69 63 51
-0.043689 2.325243 -5.382356 67 62 53
-0.033097 2.264776 -5.242390 64 59 53
-0.023641 2.264776 -5.242390 63 59 56
-0.014423 2.302885 -5.330603 72 68 69
-0.004811 2.304269 -5.333808 73 68 73
0.004808 2.302885 -5.330603 63 57 70
0.014397 2.298740 -5.321010 55 47 68
0.023952 2.294611 -5.311451 43 37 60
0.033453 2.289128 -5.298759 40 36 54
0.042959 2.286396 -5.292436 45 40 51
0.052164 2.271488 -5.257927 57 49 52
0.061033 2.248826 -5.205471 60 50 49
0.070299 2.244874 -5.196323 65 51 50
0.128114 2.272835 -5.261046 78 59 53
0.137604 2.272835 -5.261046 78 59 53
0.145029 2.240936 -5.187206 78 59 55
0.153221 2.224028 -5.148069 76 58 56
0.162131 2.218877 -5.136146 77 58 55
0.171197 2.216310 -5.130204 80 62 56
0.179517 2.204833 -5.103638 82 63 56
0.187858 2.194731 -5.080254 83 64 55
0.197022 2.194731 -5.080254 80 63 53
0.209424 2.229203 -5.160048 77 61 49
0.355030 2.267456 -5.248593 75 55 48
0.364497 2.267456 -5.248593 75 55 47
0.375074 2.274184 -5.264168 73 54 46
0.412872 2.326654 -5.385624 75 56 49
0.422587 2.326654 -5.385624 75 57 50
0.432039 2.325243 -5.382356 81 62 55
0.441748 2.325243 -5.382356 86 67 60
0.451456 2.325243 -5.382356 80 61 54
0.684466 2.325243 -5.382356 76 56 54
0.694175 2.325243 -5.382356 68 49 44
0.714726 2.361060 -5.465264 68 50 42
0.725926 2.365432 -5.475385 68 51 41
0.737168 2.369821 -5.485543 72 55 47
0.747988 2.372756 -5.492336 72 54 48
0.755089 2.363973 -5.472007 72 53 50
0.764960 2.363973 -5.472007 75 54 57
0.767510 2.255444 -5.220790 54 30 49
0.795294 2.254118 -5.217720 57 39 40
0.801406 2.244874 -5.196323 65 47 46
0.805119 2.229203 -5.160048 72 56 52
0.810654 2.218877 -5.136146 74 68 63
0.819444 2.217592 -5.133173 77 89 81
0.828704 2.217592 -5.133173 82 105 100
0.839907 2.222738 -5.145083 84 113 114
0.854641 2.237011 -5.178122 94 116 122
0.864486 2.238318 -5.181147 108 108 123
0.873832 2.238318 -5.181147 114 98 116
0.877539 2.224028 -5.148069 123 93 111
0.882217 2.212471 -5.121318 129 87 106
0.886338 2.199770 -5.091919 133 85 105
0.895009 2.198508 -5.088998 135 76 99
0.904188 2.198508 -5.088998 125 57 80
0.912844 2.197248 -5.086080 121 50 65
0.922547 2.198508 -5.088998 116 46 54
0.931727 2.198508 -5.088998 110 42 44
0.941987 2.201034 -5.094844 112 47 48
0.955568 2.211195 -5.118363 110 46 47
0.967593 2.217592 -5.133173 107 45 46
0.978551 2.221449 -5.142100 108 50 49
0.995327 2.238318 -5.181147 115 59 58
1.033033 2.301502 -5.327401 121 68 64
1.043269 2.302885 -5.330603 120 69 64
1.052252 2.301502 -5.327401 116 66 58
1.060588 2.298740 -5.321010 114 64 55
1.070186 2.298740 -5.321010 111 61 49
1.083685 2.307044 -5.340230 112 60 47
1.093317 2.307044 -5.340230 112 60 45
1.100962 2.302885 -5.330603 111 58 42
1.109910 2.301502 -5.327401 113 60 42
1.111509 2.285033 -5.289280 114 62 41
1.108491 2.259434 -5.230025 111 61 39
1.113984 2.251469 -5.211588 111 63 43
1.120094 2.244874 -5.196323 116 68 46
1.126168 2.238318 -5.181147 120 68 47
1.131548 2.230501 -5.163052 120 68 46
1.140198 2.229203 -5.160048 120 69 48
1.391950 2.372756 -5.492336 122 72 48
1.400990 2.371287 -5.488937 120 70 44
1.410891 2.371287 -5.488937 124 74 50
1.418159 2.366893 -5.478766 129 79 55
1.417535 2.349479 -5.438457 128 78 54
1.713923 2.436109 -5.638985 125 74 57
1.725191 2.437659 -5.642572 128 77 58
1.739796 2.443877 -5.656966 133 82 62
1.748111 2.413098 -5.585720 126 75 54
1.762626 2.419192 -5.599825 124 71 53
1.797695 2.453265 -5.678696 118 65 47
1.814910 2.462725 -5.700593 112 59 41
1.826367 2.464309 -5.704259 119 66 48
1.837838 2.465894 -5.707930 120 67 48
1.829299 2.440764 -5.649760 118 66 45
1.833651 2.433016 -5.631824 117 65 44
1.843809 2.433016 -5.631824 117 67 45
1.845765 2.422250 -5.606905 117 69 46
1.850031 2.414619 -5.589240 119 73 50
1.836963 2.384567 -5.519678 120 74 54
1.845771 2.383085 -5.516246 126 81 59
1.855721 2.383085 -5.516246 135 89 67
1.865672 2.383085 -5.516246 129 83 60
1.877958 2.386052 -5.523115 121 73 49
1.887920 2.386052 -5.523115 117 68 44
1.900249 2.389027 -5.530002 121 69 48
1.938014 2.423782 -5.610451 125 71 53
1.945673 2.420720 -5.603363 128 70 58
1.949622 2.413098 -5.585720 131 72 62
1.959698 2.413098 -5.585720 134 75 67
1.969773 2.413098 -5.585720 134 75 66
1.991134 2.426852 -5.617558 130 71 61
1.989924 2.413098 -5.585720 127 63 54
1.998741 2.411580 -5.582204 122 55 47
2.006285 2.408548 -5.575187 120 52 47
1.927885 2.302885 -5.330603 119 55 53
1.937500 2.302885 -5.330603 117 63 62
1.969605 2.329483 -5.392172 108 64 65
1.979331 2.329483 -5.392172 105 75 80
1.980630 2.319613 -5.369324 105 89 99
1.977150 2.304269 -5.333808 100 99 116
1.985577 2.302885 -5.330603 95 107 130
1.991602 2.298740 -5.321010 91 106 134
1.991642 2.287761 -5.295596 103 121 149
1.997616 2.283671 -5.286128 118 137 159
2.010746 2.287761 -5.295596 136 149 164
2.053398 2.325243 -5.382356 143 138 148
2.064359 2.326654 -5.385624 118 94 98
2.074074 2.326654 -5.385624 102 53 48
2.150804 2.368356 -5.482152 118 52 40
2.155364 2.362515 -5.468633 119 55 42
2.162562 2.359606 -5.461898 120 58 45
2.156479 2.342298 -5.421835 121 62 51
2.164936 2.340868 -5.418523 127 73 62
12.205962 10.384824 -24.038275 123 74 46
12.183289 10.328841 -23.908688 132 86 57
12.160858 10.273458 -23.780491 141 96 66
12.203753 10.273458 -23.780491 145 105 72
12.413043 10.413043 -24.103596 141 103 68
12.456522 10.413043 -24.103596 132 94 59
12.500000 10.413043 -24.103596 130 88 55
12.509485 10.384824 -24.038275 125 83 50
12.621253 10.441417 -24.169273 121 78 48
15.545151 12.816053 -29.665964 131 88 58
16.082758 13.213793 -30.586632 134 93 63
15.496689 12.688742 -29.371269 141 103 74
16.137457 13.168385 -30.481522 140 105 76
16.192440 13.168385 -30.481522 136 101 73
16.647888 13.492958 -31.232828 141 106 78
16.645615 13.445614 -31.123240 148 112 84
16.701754 13.445614 -31.123240 149 108 83
-1.895455 2.168182 -5.039843 136 89 61
-1.886364 2.168182 -5.039843 140 93 66
-1.915362 2.212174 -5.142100 141 94 68
-1.909408 2.216028 -5.151059 140 91 67
-1.891330 2.205780 -5.127239 138 88 65
-1.880994 2.204506 -5.124277 139 90 68
-1.844052 2.171884 -5.048448 141 91 70
-1.815315 2.148649 -4.994439 145 93 72
-1.806306 2.148649 -4.994439 143 91 70
-1.797297 2.148649 -4.994439 138 82 62
-1.788288 2.148649 -4.994439 134 77 58
-1.779279 2.148649 -4.994439 134 77 58
-1.770270 2.148649 -4.994439 139 84 64
-1.761261 2.148649 -4.994439 146 93 73
-1.752252 2.148649 -4.994439 151 99 79
-1.743243 2.148649 -4.994439 144 92 72
-1.745042 2.162040 -5.025566 139 87 66
-1.734994 2.160815 -5.022720 139 83 64
-1.716216 2.148649 -4.994439 135 77 59
-1.707207 2.148649 -4.994439 137 76 59
-1.737493 2.246027 -5.220790 125 67 51
-1.715956 2.230275 -5.184175 131 75 59
-1.703617 2.226371 -5.175101 134 80 63
-1.681529 2.209612 -5.136146 133 82 64
-1.670330 2.207056 -5.130204 137 88 70
-1.662999 2.209612 -5.136146 138 91 74
-1.623121 2.205780 -5.127239 140 93 79
-1.613873 2.205780 -5.127239 141 93 81
-1.691651 2.325411 -5.405316 137 88 76
-1.657005 2.304348 -5.356355 133 76 69
-1.622844 2.270077 -5.276694 133 67 63
-1.602837 2.255319 -5.242390 131 58 53
-1.586816 2.246027 -5.220790 129 53 47
-1.565421 2.228972 -5.181147 125 50 44
-1.544348 2.212174 -5.142100 120 45 37
-1.533295 2.209612 -5.136146 114 40 33
-1.522267 2.207056 -5.130204 113 40 33
-1.508651 2.200692 -5.115411 119 48 39
-1.490826 2.188073 -5.086080 125 57 45
-1.479107 2.184316 -5.077346 130 68 54
-1.467429 2.180571 -5.068642 120 64 50
-1.456621 2.178082 -5.062856 105 56 45
-1.440909 2.168182 -5.039843 102 63 54
-1.431818 2.168182 -5.039843 104 78 73
-1.422727 2.168182 -5.039843 99 91 90
-1.414440 2.169415 -5.042708 93 105 117
-1.411765 2.179326 -5.065747 91 115 134
-1.402627 2.179326 -5.065747 98 124 145
-1.393489 2.179326 -5.065747 106 126 150
-1.381984 2.175599 -5.057083 117 125 151
-1.369738 2.170649 -5.045576 130 126 150
-1.357548 2.165721 -5.034122 140 122 143
-1.337838 2.148649 -4.994439 144 111 129
-1.328829 2.148649 -4.994439 135 82 99
-1.319820 2.148649 -4.994439 127 63 78
-1.310811 2.148649 -4.994439 127 57 69
-1.301802 2.148649 -4.994439 123 52 61
-1.292793 2.148649 -4.994439 122 50 55
-1.283784 2.148649 -4.994439 121 49 50
-1.274775 2.148649 -4.994439 119 49 45
-1.265766 2.148649 -4.994439 116 51 45
-1.267462 2.166951 -5.036981 128 63 60
-1.259091 2.168182 -5.039843 129 67 64
-1.252847 2.173121 -5.051323 133 72 70
-1.255172 2.193104 -5.097772 132 74 70
-1.236782 2.193104 -5.097772 129 74 68
-1.212947 2.166951 -5.036981 131 78 70
-1.203861 2.166951 -5.036981 130 77 68
-1.193817 2.268728 -5.273557 123 71 50
-1.185714 2.271429 -5.279835 132 80 59
-1.183233 2.285030 -5.311451 139 85 65
-1.177885 2.293269 -5.330603 140 85 65
-1.172497 2.301568 -5.349893 141 84 67
-1.160048 2.296029 -5.337018 136 79 64
-1.147659 2.290516 -5.324203 133 72 61
-1.138739 2.291892 -5.327401 129 66 57
-1.129808 2.293269 -5.330603 130 64 57
-1.120192 2.293269 -5.330603 124 56 50
-1.101311 2.274136 -5.286128 118 47 45
-1.084024 2.257988 -5.248593 118 45 44
-1.069494 2.247350 -5.223865 117 43 42
-1.022727 2.168182 -5.039843 115 42 41
-1.013636 2.168182 -5.039843 118 44 43
-1.014925 2.190586 -5.091919 121 47 46
-1.010381 2.200692 -5.115411 121 47 45
-1.000000 2.198157 -5.109518 123 49 47
-1.014151 2.250000 -5.230025 123 51 51
-1.006497 2.253987 -5.239293 126 56 56
-0.973472 2.200692 -5.115411 126 57 55
-0.958166 2.186820 -5.083165 121 53 50
-0.948997 2.186820 -5.083165 120 52 50
-0.916031 2.240752 -5.208528 123 67 63
-0.899243 2.222481 -5.166059 121 67 60
-0.889924 2.222481 -5.166059 122 71 61
-0.882147 2.226371 -5.175101 124 75 62
-0.873832 2.228972 -5.181147 121 74 58
-0.873672 2.252656 -5.236200 118 71 54
-0.864227 2.252656 -5.236200 124 76 60
-0.852768 2.247350 -5.223865 134 83 69
-0.841858 2.243386 -5.214652 137 84 70
-0.831474 2.240752 -5.208528 134 81 67
-0.817280 2.227671 -5.178122 131 76 64
-0.791762 2.183066 -5.074441 129 72 61
-0.782609 2.183066 -5.074441 127 70 60
-0.778354 2.196891 -5.106576 125 70 60
-0.788666 2.252656 -5.236200 126 72 62
-0.778761 2.251328 -5.233111 128 74 64
-0.769322 2.251328 -5.233111 129 75 66
-0.774038 2.293269 -5.330603 127 74 66
-0.755262 2.294648 -5.333808 123 70 62
-0.722977 2.253987 -5.239293 128 75 66
-0.708504 2.238123 -5.202418 133 77 68
-0.697076 2.231579 -5.187206 135 76 69
-0.684517 2.221187 -5.163052 135 76 68
-0.671685 2.209612 -5.136146 134 75 66
-0.662037 2.208333 -5.133173 130 72 61
-0.651646 2.204506 -5.124277 126 68 55
-0.640553 2.198157 -5.109518 126 68 54
-0.629523 2.191844 -5.094844 129 73 58
-0.617143 2.180571 -5.068642 129 73 59
-0.608000 2.180571 -5.068642 132 76 63
-0.598857 2.180571 -5.068642 136 79 67
-0.587365 2.171884 -5.048448 132 74 63
-0.577273 2.168182 -5.039843 132 74 64
-0.567859 2.166951 -5.036981 134 75 67
-0.558140 2.164492 -5.031267 132 73 66
-0.548442 2.162040 -5.025566 132 73 67
-0.539989 2.164492 -5.031267 132 74 65
-0.541040 2.205780 -5.127239 127 69 57
-0.571074 2.368715 -5.505973 124 65 53
-0.561142 2.368715 -5.505973 124 65 51
-0.512998 2.204506 -5.124277 127 68 54
-0.503755 2.204506 -5.124277 129 70 54
-0.495944 2.210892 -5.139121 131 71 56
-0.487805 2.216028 -5.151059 132 70 58
-0.479627 2.221187 -5.163052 132 69 59
-0.470862 2.223776 -5.169069 127 64 57
-0.461808 2.225073 -5.172083 124 61 54
-0.453006 2.227671 -5.178122 126 63 58
-0.443925 2.228972 -5.181147 130 67 63
-0.435088 2.231579 -5.187206 133 71 65
-0.426230 2.234192 -5.193281 130 69 61
-0.417106 2.235501 -5.196323 129 66 57
-0.407018 2.231579 -5.187206 125 64 53
-0.397894 2.232885 -5.190242 130 69 55
-0.388531 2.232885 -5.190242 130 73 61
-0.378063 2.226371 -5.175101 131 77 70
-0.367442 2.218605 -5.157048 131 78 73
-0.356895 2.210892 -5.139121 134 78 76
-0.347021 2.207056 -5.130204 128 74 72
-0.337572 2.205780 -5.127239 133 79 77
-0.319820 2.148649 -4.994439 147 100 96
-0.310811 2.148649 -4.994439 118 79 75
-0.301802 2.148649 -4.994439 98 76 72
-0.292793 2.148649 -4.994439 92 93 91
-0.283784 2.148649 -4.994439 93 112 112
-0.276331 2.160815 -5.022720 85 118 123
-0.267877 2.165721 -5.034122 89 121 134
-0.259829 2.174359 -5.054201 105 121 146
-0.251429 2.180571 -5.068642 111 115 145
-0.241595 2.174359 -5.054201 105 98 130
-0.232082 2.170649 -5.045576 106 86 116
-0.222601 2.166951 -5.036981 122 87 112
-0.213273 2.164492 -5.031267 114 69 90
-0.203735 2.159593 -5.019877 95 47 63
-0.193694 2.148649 -4.994439 90 44 60
-0.184685 2.148649 -4.994439 67 28 46
-0.185604 2.270077 -5.276694 60 29 45
-0.176716 2.278209 -5.295596 57 32 51
-0.168269 2.293269 -5.330603 53 35 51
-0.158654 2.293269 -5.330603 50 36 51
-0.147795 2.274136 -5.286128 48 36 50
-0.138177 2.272781 -5.282980 50 39 53
-0.130909 2.312727 -5.375832 56 45 62
-0.121359 2.315534 -5.382356 57 43 68
-0.112058 2.323995 -5.402024 52 38 61
-0.104869 2.382022 -5.536906 47 35 52
-0.094881 2.382022 -5.536906 50 42 53
-0.074488 2.368715 -5.505973 63 53 55
-0.064356 2.361386 -5.488937 67 59 57
-0.054388 2.358467 -5.482152 71 63 60
-0.044472 2.357011 -5.478766 68 62 62
-0.033019 2.250000 -5.230025 66 60 60
-0.023585 2.250000 -5.230025 65 59 59
-0.014423 2.293269 -5.330603 63 58 59
-0.004808 2.293269 -5.330603 61 56 61
0.004808 2.293269 -5.330603 59 56 66
0.014388 2.287770 -5.317820 59 54 73
0.023952 2.285030 -5.311451 46 43 63
0.033453 2.279570 -5.298759 44 41 60
0.042959 2.276850 -5.292436 51 48 61
0.051948 2.252656 -5.236200 55 48 52
0.060926 2.235501 -5.196323 58 48 47
0.070175 2.231579 -5.187206 62 48 50
0.118624 2.263345 -5.261046 75 57 53
0.127134 2.246027 -5.220790 70 52 46
0.136551 2.246027 -5.220790 69 52 45
0.145029 2.231579 -5.187206 72 54 49
0.152866 2.209612 -5.136146 69 53 49
0.161476 2.200692 -5.115411 68 51 47
0.170213 2.194365 -5.100703 71 54 48
0.178694 2.185567 -5.080254 74 57 49
0.186682 2.171884 -5.048448 77 60 52
0.195677 2.170649 -5.045576 81 64 56
0.205011 2.173121 -5.051323 79 64 54
0.214123 2.173121 -5.051323 73 59 49
0.365362 2.263345 -5.261046 87 69 60
0.375297 2.266033 -5.267294 79 61 53
0.384798 2.266033 -5.267294 78 59 52
0.402913 2.315534 -5.382356 77 58 52
0.412621 2.315534 -5.382356 76 57 51
0.422330 2.315534 -5.382356 75 57 50
0.432039 2.315534 -5.382356 79 62 55
0.441748 2.315534 -5.382356 82 64 59
0.451456 2.315534 -5.382356 77 59 54
0.698020 2.361386 -5.488937 73 55 54
0.707921 2.361386 -5.488937 66 46 44
0.717822 2.361386 -5.488937 65 46 40
0.728625 2.364312 -5.495739 66 48 42
0.738081 2.362848 -5.492336 70 52 48
0.749380 2.367246 -5.502558 68 53 49
0.757895 2.362848 -5.492336 67 51 49
0.765432 2.355556 -5.475385 69 49 54
0.775610 2.326829 -5.408612 62 40 58
0.800468 2.232885 -5.190242 70 50 50
0.803717 2.216028 -5.151059 74 57 52
0.809717 2.207056 -5.130204 67 63 57
0.818971 2.207056 -5.130204 65 80 72
0.828704 2.208333 -5.133173 72 99 95
0.839907 2.213457 -5.145083 80 110 112
0.854641 2.227671 -5.178122 90 111 119
0.864486 2.228972 -5.181147 101 100 118
0.873832 2.228972 -5.181147 106 88 106
0.877539 2.214742 -5.148069 112 77 94
0.882727 2.204506 -5.124277 116 72 89
0.886338 2.190586 -5.091919 124 72 88
0.895522 2.190586 -5.091919 127 69 84
0.904707 2.190586 -5.091919 117 52 68
0.913368 2.189329 -5.088998 113 45 57
0.922018 2.188073 -5.086080 108 40 47
0.931193 2.188073 -5.086080 103 36 40
0.940906 2.189329 -5.088998 107 41 45
0.951177 2.191844 -5.094844 106 42 45
0.964801 2.201962 -5.118363 105 44 44
0.976852 2.208333 -5.133173 107 49 48
1.004717 2.250000 -5.230025 112 56 55
1.033654 2.293269 -5.330603 118 65 61
1.043269 2.293269 -5.330603 117 66 62
1.052885 2.293269 -5.330603 116 66 59
1.062500 2.293269 -5.330603 117 64 56
1.072115 2.293269 -5.330603 117 65 54
1.083685 2.297411 -5.340230 119 66 54
1.093317 2.297411 -5.340230 117 64 50
1.100300 2.291892 -5.327401 111 58 42
1.107250 2.286399 -5.314633 111 58 40
1.111509 2.275492 -5.289280 112 60 39
1.102639 2.238123 -5.202418 109 58 37
1.110721 2.235501 -5.196323 104 56 36
1.116822 2.228972 -5.181147 111 63 41
1.121582 2.219895 -5.160048 117 66 45
1.127610 2.213457 -5.145083 119 67 45
1.134259 2.208333 -5.133173 122 71 50
1.149505 2.219895 -5.160048 118 70 50
1.375315 2.403023 -5.585720 121 69 48
1.379310 2.392477 -5.561206 118 69 46
1.389342 2.392477 -5.561206 126 75 52
1.399373 2.392477 -5.561206 131 81 55
1.405879 2.386492 -5.547294 124 74 48
1.401858 2.362848 -5.492336 121 71 43
1.416149 2.370186 -5.509393 124 74 48
1.426087 2.370186 -5.509393 130 80 54
1.439602 2.376090 -5.523115 126 76 51
1.449564 2.376090 -5.523115 126 76 53
1.619792 2.484375 -5.774820 130 79 48
1.630208 2.484375 -5.774820 131 80 49
1.655716 2.507227 -5.827939 130 79 48
1.666229 2.507227 -5.827939 127 78 46
1.676741 2.507227 -5.827939 130 81 49
1.703751 2.425938 -5.638985 127 76 59
1.719388 2.433673 -5.656966 126 75 55
1.729592 2.433673 -5.656966 126 75 54
1.739796 2.433673 -5.656966 128 77 56
1.748111 2.403023 -5.585720 123 72 51
1.794344 2.452442 -5.700593 123 70 52
1.805788 2.454019 -5.704259 118 66 47
1.817246 2.455598 -5.707930 112 60 41
1.827542 2.455598 -5.707930 122 70 49
1.848504 2.429026 -5.646163 120 71 48
1.858689 2.429026 -5.646163 118 71 48
1.848866 2.403023 -5.585720 121 75 52
1.834680 2.371660 -5.512817 117 72 51
1.838910 2.364312 -5.495739 119 74 52
1.846535 2.361386 -5.488937 126 82 58
1.857585 2.362848 -5.492336 123 78 53
1.870968 2.367246 -5.502558 121 74 48
1.880893 2.367246 -5.502558 119 70 45
1.891993 2.368715 -5.505973 121 69 47
1.918597 2.389480 -5.554241 121 68 49
1.934673 2.396985 -5.571685 123 66 53
1.943503 2.395480 -5.568188 128 70 60
1.945000 2.385000 -5.543827 134 75 67
1.955000 2.385000 -5.543827 133 74 68
1.979849 2.403023 -5.585720 130 70 63
1.988672 2.401510 -5.582204 130 67 58
1.996229 2.398492 -5.575187 126 58 50
1.997497 2.387985 -5.550766 119 52 44
2.005000 2.385000 -5.543827 118 54 51
1.973072 2.335373 -5.428472 115 59 58
1.969605 2.319757 -5.392172 104 59 61
1.978129 2.318347 -5.388896 98 67 74
1.980630 2.309927 -5.369324 101 86 99
1.977150 2.294648 -5.333808 98 101 119
1.985577 2.293269 -5.330603 94 110 134
1.991602 2.289142 -5.321010 91 111 140
1.988081 2.274136 -5.286128 100 122 151
1.996426 2.272781 -5.282980 117 139 161
2.007151 2.274136 -5.286128 141 156 170
2.052153 2.314130 -5.379092 143 138 149
2.063107 2.315534 -5.382356 108 83 86
2.074074 2.316940 -5.385624 103 53 50
2.158809 2.367246 -5.502558 118 54 44
2.160692 2.358467 -5.482152 122 59 48
2.167901 2.355556 -5.475385 119 58 47
2.175092 2.352651 -5.468633 115 56 46
12.759207 10.810198 -25.127827 121 71 45
12.183289 10.285714 -23.908688 129 81 55
12.160858 10.230563 -23.780491 140 94 67
12.203753 10.230563 -23.780491 149 108 77
12.446866 10.397820 -24.169273 142 103 71
12.524590 10.426229 -24.235310 130 90 59
12.500000 10.369565 -24.103596 128 85 56
12.543478 10.369565 -24.103596 126 81 52
12.760330 10.512397 -24.435600 127 82 53
15.545151 12.762542 -29.665964 132 88 61
15.598662 12.762542 -29.665964 132 89 61
15.244300 12.429968 -28.892908 134 94 65
15.296417 12.429968 -28.892908 135 98 70
15.348535 12.429968 -28.892908 132 97 69
16.359861 13.204152 -30.692467 136 101 72
16.415224 13.204152 -30.692467 143 105 76
16.760563 13.436620 -31.232828 143 100 75
-1.895455 2.159091 -5.039843 142 95 69
-1.885292 2.157865 -5.036981 143 96 70
-1.910931 2.197802 -5.130204 146 99 73
-1.899480 2.195263 -5.124277 146 99 75
-1.890237 2.195263 -5.124277 147 99 76
-1.856328 2.166477 -5.057083 144 93 72
-1.836735 2.154195 -5.028414 143 92 71
-1.815315 2.139640 -4.994439 144 92 71
-1.806306 2.139640 -4.994439 140 87 66
-1.797297 2.139640 -4.994439 138 82 63
-1.788288 2.139640 -4.994439 134 78 59
-1.779279 2.139640 -4.994439 133 76 59
-1.770270 2.139640 -4.994439 140 84 67
-1.761261 2.139640 -4.994439 143 90 72
-1.752252 2.139640 -4.994439 148 97 78
-1.743243 2.139640 -4.994439 149 98 79
-1.744054 2.151755 -5.022720 148 95 77
-1.735977 2.152975 -5.025566 144 88 71
-1.716216 2.139640 -4.994439 138 79 63
-1.707207 2.139640 -4.994439 145 81 66
-1.713636 2.159091 -5.039843 142 78 64
-1.724299 2.219626 -5.181147 126 68 53
-1.708964 2.211874 -5.163052 133 76 62
-1.690793 2.200347 -5.136146 135 81 66
-1.678613 2.196532 -5.127239 133 82 65
-1.656913 2.180149 -5.088998 139 90 73
-1.659157 2.195263 -5.124277 137 90 74
-1.619377 2.191465 -5.115411 143 95 83
-1.605520 2.185164 -5.100703 143 95 83
-1.592656 2.180149 -5.088998 138 89 76
-1.659009 2.297461 -5.362831 134 78 69
-1.622844 2.260559 -5.276694 132 69 62
-1.600000 2.241888 -5.233111 133 61 55
-1.584019 2.232667 -5.211588 136 59 52
-1.562682 2.215744 -5.172083 130 55 48
-1.544348 2.202899 -5.142100 121 47 38
-1.533295 2.200347 -5.136146 118 43 37
-1.523148 2.199074 -5.133173 121 48 39
-1.509521 2.192729 -5.118363 127 55 44
-1.490826 2.178899 -5.086080 126 58 45
-1.479107 2.175157 -5.077346 128 66 51
-1.468268 2.172670 -5.071540 121 64 49
-1.458286 2.171429 -5.068642 106 58 45
-1.441728 2.160318 -5.042708 100 62 53
-1.431818 2.159091 -5.039843 104 81 73
-1.422727 2.159091 -5.039843 102 96 94
-1.415245 2.161547 -5.045576 94 107 119
-1.411765 2.170188 -5.065747 89 115 135
-1.402627 2.170188 -5.065747 96 122 145
-1.393489 2.170188 -5.065747 108 129 152
-1.379624 2.162777 -5.048448 122 130 156
-1.368182 2.159091 -5.039843 136 132 155
-1.356009 2.154195 -5.028414 147 130 149
-1.337838 2.139640 -4.994439 148 115 132
-1.328829 2.139640 -4.994439 130 77 94
-1.319820 2.139640 -4.994439 118 53 67
-1.310811 2.139640 -4.994439 119 49 60
-1.301802 2.139640 -4.994439 120 49 57
-1.292793 2.139640 -4.994439 122 48 53
-1.283784 2.139640 -4.994439 118 45 47
-1.274775 2.139640 -4.994439 115 46 42
-1.265766 2.139640 -4.994439 114 48 42
-1.263158 2.150538 -5.019877 119 54 51
-1.258376 2.157865 -5.036981 122 61 59
-1.250000 2.159091 -5.039843 130 68 68
-1.255172 2.183908 -5.097772 131 73 71
-1.236782 2.183908 -5.097772 132 76 73
-1.210198 2.152975 -5.025566 132 78 74
-1.203861 2.157865 -5.036981 130 77 71
-1.190985 2.253855 -5.261046 127 74 56
-1.185009 2.260559 -5.276694 131 79 58
-1.185363 2.279544 -5.321010 138 84 64
-1.182147 2.291918 -5.349893 140 85 65
-1.181763 2.310030 -5.392172 138 81 64
-1.167777 2.301635 -5.372576 136 77 62
-1.150421 2.286402 -5.337018 133 71 60
-1.140108 2.285027 -5.333808 129 63 54
-1.127774 2.279544 -5.321010 128 60 54
-1.117506 2.278177 -5.317820 121 50 46
-1.098039 2.257873 -5.270424 117 44 42
-1.083383 2.247191 -5.245490 118 45 44
-1.073921 2.247191 -5.245490 119 43 43
-1.059447 2.236610 -5.220790 118 42 42
-1.052507 2.241888 -5.233111 119 43 43
-1.032710 2.219626 -5.181147 120 44 44
-1.033019 2.240566 -5.230025 120 43 41
-1.023585 2.240566 -5.230025 119 43 40
-1.014749 2.241888 -5.233111 121 47 45
-1.006497 2.244536 -5.239293 123 50 51
-0.995283 2.240566 -5.230025 124 53 51
-0.984688 2.237927 -5.223865 123 53 51
-0.975265 2.237927 -5.223865 123 53 52
-0.936423 2.257873 -5.270424 122 63 60
-0.916031 2.231356 -5.208528 122 64 60
-0.901343 2.218330 -5.178122 121 65 59
-0.891482 2.217036 -5.175101 125 72 62
-0.882147 2.217036 -5.175101 128 77 64
-0.873832 2.219626 -5.181147 123 75 59
-0.871101 2.236610 -5.220790 116 69 51
-0.864227 2.243211 -5.236200 120 72 54
-0.850764 2.232667 -5.211588 128 79 63
-0.840869 2.231356 -5.208528 129 79 64
-0.826620 2.218330 -5.178122 128 75 61
-0.799543 2.170188 -5.065747 130 75 63
-0.790406 2.170188 -5.065747 130 73 62
-0.779932 2.166477 -5.057083 127 70 61
-0.773455 2.173913 -5.074441 125 68 59
-0.761688 2.166477 -5.057083 130 73 64
-0.778761 2.241888 -5.233111 141 85 76
-0.769322 2.241888 -5.233111 144 90 81
-0.774038 2.283654 -5.330603 137 84 76
-0.719154 2.232667 -5.211588 128 74 67
-0.707674 2.226128 -5.196323 132 76 69
-0.697076 2.222222 -5.187206 134 75 69
-0.687317 2.220923 -5.184175 135 74 69
-0.676385 2.215744 -5.172083 134 75 69
-0.665503 2.210588 -5.160048 133 74 65
-0.653156 2.200347 -5.136146 128 70 59
-0.642775 2.196532 -5.127239 127 69 57
-0.631336 2.188940 -5.109518 129 72 62
-0.617496 2.172670 -5.071540 132 75 64
-0.608348 2.172670 -5.071540 135 78 68
-0.597151 2.165242 -5.054201 136 79 71
-0.603156 2.220923 -5.184175 131 72 66
-0.577929 2.161547 -5.045576 133 74 69
-0.568182 2.159091 -5.039843 137 78 74
-0.559091 2.159091 -5.039843 132 73 70
-0.549688 2.157865 -5.036981 128 68 66
-0.540909 2.159091 -5.039843 127 68 64
-0.541040 2.196532 -5.127239 126 68 60
-0.571074 2.358783 -5.505973 128 69 58
-0.561142 2.358783 -5.505973 129 69 58
-0.510932 2.186421 -5.103638 130 70 59
-0.500000 2.178899 -5.086080 131 71 60
-0.497096 2.206736 -5.151059 132 71 61
-0.489510 2.214452 -5.169069 132 69 61
-0.480186 2.214452 -5.169069 131 68 62
-0.470862 2.214452 -5.169069 129 66 62
-0.461538 2.214452 -5.169069 128 63 62
-0.453006 2.218330 -5.178122 131 65 66
-0.443925 2.219626 -5.181147 132 68 67
-0.435852 2.226128 -5.196323 134 69 67
-0.427732 2.232667 -5.211588 131 67 63
-0.419070 2.236610 -5.220790 131 66 61
-0.409412 2.235294 -5.217720 127 64 55
-0.400000 2.235294 -5.217720 124 65 54
-0.389900 2.231356 -5.208528 134 79 67
-0.379391 2.224824 -5.193281 136 84 73
-0.368728 2.217036 -5.175101 126 72 64
-0.357101 2.202899 -5.142100 129 74 67
-0.347021 2.197802 -5.130204 130 74 66
-0.337572 2.196532 -5.127239 128 72 63
-0.319820 2.139640 -4.994439 131 79 71
-0.310811 2.139640 -4.994439 116 72 66
-0.301802 2.139640 -4.994439 99 73 69
-0.292793 2.139640 -4.994439 99 96 93
-0.283784 2.139640 -4.994439 101 118 118
-0.276801 2.155417 -5.031267 89 120 126
-0.268030 2.157865 -5.036981 89 119 133
-0.259238 2.160318 -5.042708 104 119 145
-0.250569 2.164009 -5.051323 110 114 144
-0.241046 2.160318 -5.042708 113 105 138
-0.231687 2.157865 -5.036981 123 103 133
-0.222601 2.157865 -5.036981 137 100 128
-0.213273 2.155417 -5.031267 121 72 96
-0.202703 2.139640 -4.994439 96 45 64
-0.193694 2.139640 -4.994439 92 44 60
-0.184685 2.139640 -4.994439 72 31 49
-0.186158 2.267303 -5.292436 61 28 45
-0.178528 2.291918 -5.349893 54 30 46
-0.168573 2.287778 -5.340230 52 34 50
-0.158654 2.283654 -5.330603 51 37 52
-0.147883 2.265951 -5.289280 49 38 52
-0.138260 2.264601 -5.286128 51 43 58
-0.129808 2.283654 -5.330603 60 49 66
-0.121359 2.305825 -5.382356 59 45 68
-0.111650 2.305825 -5.382356 51 38 57
-0.074488 2.358783 -5.505973 62 54 57
-0.064237 2.347128 -5.478766 65 56 58
-0.054321 2.345679 -5.475385 68 59 62
-0.044417 2.344232 -5.472007 67 58 63
-0.032922 2.233980 -5.214652 66 57 62
-0.023516 2.233980 -5.214652 70 61 64
-0.014423 2.283654 -5.330603 66 59 60
-0.004808 2.283654 -5.330603 63 59 60
0.004808 2.283654 -5.330603 62 59 65
0.014423 2.283654 -5.330603 58 54 69
0.023981 2.278177 -5.317820 44 41 59
0.033513 2.274087 -5.308272 42 39 56
0.042959 2.267303 -5.292436 48 45 57
0.051887 2.240566 -5.230025 56 48 52
0.060819 2.222222 -5.187206 59 48 49
0.070093 2.219626 -5.181147 63 48 53
0.079439 2.219626 -5.181147 66 49 57
0.089464 2.236610 -5.220790 71 51 60
0.098882 2.236610 -5.220790 74 55 62
0.108299 2.236610 -5.220790 74 55 58
0.117716 2.236610 -5.220790 71 53 52
0.127134 2.236610 -5.220790 70 52 49
0.136551 2.236610 -5.220790 69 52 46
0.144860 2.219626 -5.181147 70 52 47
0.152249 2.191465 -5.115411 66 50 45
0.161105 2.186421 -5.103638 63 48 43
0.169822 2.180149 -5.088998 65 50 44
0.178286 2.171429 -5.068642 69 53 46
0.186258 2.157865 -5.036981 73 56 48
0.195233 2.156640 -5.034122 77 62 53
0.204545 2.159091 -5.039843 78 64 55
0.213515 2.157865 -5.036981 75 61 52
0.223235 2.164009 -5.051323 73 59 49
0.237071 2.208019 -5.154052 76 60 49
0.247953 2.222222 -5.187206 75 58 48
0.257611 2.224824 -5.193281 73 56 46
0.266667 2.222222 -5.187206 74 56 48
0.276023 2.222222 -5.187206 74 55 48
0.285380 2.222222 -5.187206 72 53 47
0.294909 2.223522 -5.190242 71 52 46
0.304450 2.224824 -5.193281 72 53 47
0.366013 2.257873 -5.270424 88 70 60
0.375743 2.259215 -5.273557 82 63 55
0.385027 2.257873 -5.270424 80 61 54
0.395474 2.263252 -5.282980 78 59 53
0.405486 2.265951 -5.289280 76 57 51
0.415027 2.265951 -5.289280 73 55 50
0.427115 2.279544 -5.321010 73 55 51
0.441748 2.305825 -5.382356 74 56 52
0.451456 2.305825 -5.382356 73 55 52
0.704560 2.373517 -5.540364 70 51 51
0.714107 2.372035 -5.536906 70 51 51
0.720497 2.360249 -5.509393 74 56 51
0.729981 2.358783 -5.505973 75 59 53
0.739913 2.358783 -5.505973 78 63 60
0.749380 2.357320 -5.502558 78 62 62
0.758834 2.355859 -5.499146 73 57 57
0.767802 2.352941 -5.492336 69 51 57
0.775309 2.345679 -5.475385 71 51 64
0.775610 2.317073 -5.408612 64 42 62
0.777778 2.294686 -5.356355 58 34 58
0.769776 2.243211 -5.236200 54 30 52
0.795294 2.235294 -5.217720 60 39 45
0.799532 2.220923 -5.184175 74 52 54
0.802784 2.204176 -5.145083 86 65 62
0.808781 2.195263 -5.124277 75 68 62
0.818024 2.195263 -5.124277 68 84 75
0.828224 2.197802 -5.130204 71 101 97
0.839907 2.204176 -5.145083 80 110 114
0.853147 2.214452 -5.169069 89 109 122
0.863477 2.217036 -5.175101 101 98 118
0.872812 2.217036 -5.175101 106 85 105
0.877539 2.205456 -5.148069 116 78 96
0.882727 2.195263 -5.124277 124 76 90
0.886338 2.181401 -5.091919 133 81 92
0.895522 2.181401 -5.091919 140 82 92
0.904707 2.181401 -5.091919 128 66 75
0.913368 2.180149 -5.088998 121 56 64
0.922018 2.178899 -5.086080 113 47 53
0.930126 2.176403 -5.080254 106 40 44
0.940367 2.178899 -5.086080 106 40 44
0.949541 2.178899 -5.086080 109 44 48
0.960368 2.182654 -5.094844 108 47 48
0.969558 2.182654 -5.094844 107 49 48
1.043269 2.283654 -5.330603 122 71 67
1.052885 2.283654 -5.330603 120 70 63
1.062500 2.283654 -5.330603 117 64 56
1.073406 2.286402 -5.337018 118 66 55
1.083032 2.286402 -5.337018 121 67 57
1.092002 2.285027 -5.333808 118 64 52
1.100300 2.282282 -5.327401 113 60 46
1.107250 2.276813 -5.314633 113 60 44
1.111509 2.265951 -5.289280 114 62 43
1.099415 2.222222 -5.187206 112 61 42
1.107477 2.219626 -5.181147 102 54 34
1.110337 2.206736 -5.151059 108 60 38
1.118330 2.204176 -5.145083 114 63 42
1.127610 2.204176 -5.145083 116 65 43
1.134259 2.199074 -5.133173 117 66 45
1.391083 2.420382 -5.649760 124 70 49
1.385390 2.392947 -5.585720 119 67 44
1.389342 2.382445 -5.561206 122 71 45
1.398496 2.380952 -5.557721 128 77 49
1.405879 2.376485 -5.547294 126 75 47
1.415885 2.376485 -5.547294 122 73 43
1.425891 2.376485 -5.547294 124 75 46
1.438596 2.380952 -5.557721 131 81 53
1.456837 2.394455 -5.589240 125 75 49
1.472486 2.403542 -5.610451 127 77 52
1.482606 2.403542 -5.610451 123 73 51
1.490840 2.400505 -5.603363 120 69 48
1.500948 2.400505 -5.603363 126 75 56
1.511055 2.400505 -5.603363 127 76 57
1.529860 2.414231 -5.635402 116 68 46
1.551857 2.432779 -5.678696 118 70 47
1.562100 2.432779 -5.678696 124 74 49
1.572343 2.432779 -5.678696 128 78 51
1.615686 2.483660 -5.797466 131 80 51
1.626144 2.483660 -5.797466 130 79 48
1.631270 2.475570 -5.778582 128 77 46
1.641694 2.475570 -5.778582 128 78 45
1.666229 2.496715 -5.827939 127 77 45
1.676741 2.496715 -5.827939 127 78 46
1.658475 2.394455 -5.589240 121 71 47
1.675949 2.405063 -5.614002 126 76 53
1.686076 2.405063 -5.614002 129 78 59
1.705920 2.418842 -5.646163 128 77 60
1.731535 2.440591 -5.696932 127 76 57
1.741811 2.440591 -5.696932 128 77 56
1.767984 2.462735 -5.748621 126 75 53
1.773756 2.456367 -5.733757 124 74 51
1.784098 2.456367 -5.733757 120 68 46
1.789813 2.450032 -5.718970 121 69 47
1.798969 2.448454 -5.715285 125 73 52
1.809278 2.448454 -5.715285 119 67 46
1.821936 2.451613 -5.722660 118 66 45
1.831077 2.450032 -5.718970 126 74 53
1.849681 2.420382 -5.649760 122 72 49
1.868202 2.431222 -5.675063 124 76 53
1.867684 2.417303 -5.642572 126 80 57
1.828996 2.354399 -5.495739 122 77 56
1.836634 2.351485 -5.488937 121 76 55
1.846535 2.351485 -5.488937 122 78 54
1.856436 2.351485 -5.488937 124 79 53
1.867492 2.352941 -5.492336 127 80 52
1.877399 2.352941 -5.492336 123 75 48
1.890819 2.357320 -5.502558 121 70 45
1.918597 2.379462 -5.554241 120 67 47
1.928616 2.379462 -5.554241 122 66 51
1.935000 2.375000 -5.543827 127 70 59
1.938941 2.367601 -5.526556 133 74 67
1.942857 2.360249 -5.509393 133 74 68
1.963773 2.373517 -5.540364 131 71 65
1.986172 2.388435 -5.575187 128 65 57
1.985000 2.375000 -5.543827 122 54 46
1.949908 2.321320 -5.418523 117 49 43
2.005000 2.375000 -5.543827 118 53 49
1.973072 2.325581 -5.428472 118 59 57
1.969605 2.310030 -5.392172 108 59 61
1.975728 2.305825 -5.382356 99 65 72
1.979431 2.298851 -5.366076 98 82 95
1.975962 2.283654 -5.330603 94 97 116
1.985577 2.283654 -5.330603 90 107 132
1.991602 2.279544 -5.321010 90 112 143
1.986897 2.263252 -5.282980 100 124 155
1.995238 2.261905 -5.279835 118 141 164
2.004762 2.261905 -5.279835 144 157 172
2.050909 2.303030 -5.375832 144 137 148
2.063107 2.305825 -5.382356 105 76 81
2.074074 2.307225 -5.385624 97 47 45
2.164179 2.363184 -5.516246 112 48 38
2.163366 2.351485 -5.488937 119 55 45
2.170581 2.348578 -5.482152 121 58 49
2.177778 2.345679 -5.475385 120 60 52
12.616246 10.644258 -24.846283 128 79 52
12.316076 10.354223 -24.169273 130 84 58
12.226415 10.242588 -23.908688 137 91 65
12.269542 10.242588 -23.908688 146 104 76
12.515068 10.410959 -24.301706 141 101 73
12.662984 10.497237 -24.503103 136 96 68
12.672176 10.468320 -24.435600 131 88 62
12.716253 10.468320 -24.435600 126 81 55
12.831025 10.526316 -24.570978 127 81 55
13.092957 10.704226 -24.986261 131 85 60
15.495017 12.624585 -29.468847 134 90 65
14.224924 11.550152 -26.960861 134 93 67
14.017910 11.343284 -26.477980 137 99 72
14.065672 11.343284 -26.477980 136 99 72
16.191780 13.013699 -30.377134 134 97 69
16.246574 13.013699 -30.377134 137 98 69
-1.891156 2.145125 -5.028414 141 95 69
-1.869369 2.130631 -4.994439 139 93 67
-1.869836 2.141483 -5.019877 135 88 62
-1.899480 2.186020 -5.124277 136 88 64
-1.890237 2.186020 -5.124277 140 92 69
-1.856328 2.157355 -5.057083 138 88 67
-1.836735 2.145125 -5.028414 138 87 66
-1.815315 2.130631 -4.994439 140 88 67
-1.806306 2.130631 -4.994439 139 85 65
-1.797297 2.130631 -4.994439 142 87 67
-1.788288 2.130631 -4.994439 140 85 65
-1.779279 2.130631 -4.994439 134 78 61
-1.770270 2.130631 -4.994439 132 78 61
-1.761261 2.130631 -4.994439 138 86 67
-1.752252 2.130631 -4.994439 144 94 75
-1.757094 2.147560 -5.034122 158 107 88
-1.747022 2.146342 -5.031267 160 107 89
-1.737947 2.146342 -5.031267 143 87 70
-1.726912 2.143909 -5.025566 132 70 55
-1.722727 2.150000 -5.039843 139 73 59
-1.727377 2.167239 -5.080254 138 71 58
-1.725307 2.211572 -5.184175 132 72 60
-1.708964 2.202561 -5.163052 137 79 68
-1.689815 2.189815 -5.133173 136 83 69
-1.666093 2.170969 -5.088998 132 80 64
-1.650286 2.162286 -5.068642 139 90 73
-1.646789 2.169725 -5.086080 138 91 75
-1.607327 2.165999 -5.077346 142 94 82
-1.597254 2.164760 -5.074441 144 96 83
-1.579966 2.153671 -5.048448 140 91 76
-1.575342 2.159817 -5.062856 138 86 72
-1.632362 2.251041 -5.276694 138 81 72
-1.622844 2.251041 -5.276694 134 71 63
-1.598114 2.229817 -5.226943 136 64 57
-1.577531 2.214160 -5.190242 139 62 55
-1.556330 2.197445 -5.151059 132 58 49
-1.543453 2.192352 -5.139121 123 49 39
-1.532407 2.189815 -5.133173 121 47 39
-1.521387 2.187283 -5.127239 124 51 42
-1.509521 2.183497 -5.118363 128 55 44
-1.489118 2.167239 -5.080254 125 56 43
-1.478261 2.164760 -5.074441 128 66 51
-1.468268 2.163522 -5.071540 125 68 53
-1.458286 2.162286 -5.068642 111 64 51
-1.442548 2.152446 -5.045576 100 65 55
-1.431818 2.150000 -5.039843 105 85 76
-1.422727 2.150000 -5.039843 105 102 100
-1.416050 2.153671 -5.048448 96 111 125
-1.411765 2.161051 -5.065747 91 117 137
-1.403429 2.162286 -5.068642 95 122 144
-1.393489 2.161051 -5.065747 110 131 155
-1.379624 2.153671 -5.048448 122 130 154
-1.368182 2.150000 -5.039843 136 132 154
-1.356009 2.145125 -5.028414 150 134 152
-1.337838 2.130631 -4.994439 147 116 130
-1.328829 2.130631 -4.994439 128 76 90
-1.319820 2.130631 -4.994439 112 47 59
-1.310811 2.130631 -4.994439 111 42 52
-1.301802 2.130631 -4.994439 117 46 53
-1.292793 2.130631 -4.994439 122 48 53
-1.283784 2.130631 -4.994439 119 47 48
-1.274775 2.130631 -4.994439 119 49 45
-1.265766 2.130631 -4.994439 119 54 48
-1.256757 2.130631 -4.994439 116 50 50
-1.247748 2.130631 -4.994439 118 56 56
-1.247166 2.145125 -5.028414 125 63 65
-1.240909 2.150000 -5.039843 129 70 70
-1.222033 2.148779 -5.036981 131 75 74
-1.208145 2.140271 -5.017038 129 75 73
-1.193694 2.130631 -4.994439 128 75 71
-1.190985 2.244365 -5.261046 133 80 62
-1.185009 2.251041 -5.276694 133 80 62
-1.185363 2.269946 -5.321010 140 84 67
-1.200980 2.318627 -5.435124 141 84 67
-1.188991 2.314373 -5.425152 139 80 65
-1.172037 2.300304 -5.392172 137 78 64
-1.158086 2.291944 -5.372576 135 72 61
-1.142169 2.279518 -5.343448 131 65 57
-1.127774 2.269946 -5.321010 127 59 53
-1.107546 2.248366 -5.270424 123 52 50
-1.095436 2.243035 -5.257927 121 48 46
-1.083383 2.237729 -5.245490 121 45 45
-1.073286 2.236407 -5.242390 123 46 46
-1.061947 2.232448 -5.233111 124 46 46
-1.053129 2.233766 -5.236200 122 44 42
-1.042453 2.231132 -5.230025 120 42 40
-1.033019 2.231132 -5.230025 119 40 38
-1.023585 2.231132 -5.230025 119 41 39
-1.014151 2.231132 -5.230025 122 45 44
-1.004717 2.231132 -5.230025 124 47 47
-0.994696 2.229817 -5.226943 125 49 49
-0.985268 2.229817 -5.226943 126 51 51
-0.975265 2.228504 -5.223865 125 53 51
-0.966411 2.229817 -5.226943 123 53 51
-0.933870 2.175963 -5.100703 122 53 52
-0.936423 2.248366 -5.270424 121 61 58
-0.916031 2.221961 -5.208528 123 65 61
-0.903452 2.214160 -5.190242 122 66 58
-0.892002 2.208990 -5.178122 121 68 56
-0.882662 2.208990 -5.178122 121 71 57
-0.871287 2.203844 -5.166059 117 70 53
-0.861969 2.203844 -5.166059 113 66 47
-0.860165 2.223267 -5.211588 117 70 50
-0.845301 2.208990 -5.178122 125 77 58
-0.835960 2.208990 -5.178122 128 78 61
-0.825175 2.205128 -5.169069 127 75 59
-0.799543 2.161051 -5.065747 129 75 60
-0.790406 2.161051 -5.065747 130 74 61
-0.780822 2.159817 -5.062856 128 71 59
-0.771689 2.159817 -5.062856 126 68 57
-0.761688 2.157355 -5.057083 126 69 59
-0.751708 2.154897 -5.051323 129 74 64
-0.740909 2.150000 -5.039843 131 78 69
-0.759434 2.231132 -5.230025 131 78 69
-0.733987 2.183497 -5.118363 129 78 70
-0.724755 2.183497 -5.118363 131 81 74
-0.724299 2.210280 -5.181147 131 81 74
-0.714953 2.210280 -5.181147 131 80 74
-0.706433 2.212866 -5.187206 133 77 72
-0.697076 2.212866 -5.187206 135 75 71
-0.687719 2.212866 -5.187206 136 76 71
-0.677966 2.211572 -5.184175 135 76 70
-0.667055 2.206414 -5.172083 135 76 68
-0.656195 2.201280 -5.160048 134 76 66
-0.643891 2.191083 -5.136146 135 78 68
-0.633526 2.187283 -5.127239 137 80 71
-0.622120 2.179724 -5.109518 137 79 71
-0.615741 2.189815 -5.133173 137 80 74
-0.611792 2.208990 -5.178122 135 76 74
-0.603156 2.211572 -5.184175 133 73 72
-0.584244 2.175963 -5.100703 134 74 73
-0.570776 2.159817 -5.062856 133 73 73
-0.560364 2.154897 -5.051323 129 69 69
-0.550626 2.152446 -5.045576 124 64 65
-0.541524 2.152446 -5.045576 123 63 62
-0.541040 2.187283 -5.127239 128 67 64
-0.576080 2.369443 -5.554241 131 70 64
-0.565000 2.365000 -5.543827 129 69 61
-0.509174 2.169725 -5.086080 127 66 59
-0.499713 2.168481 -5.083165 130 67 61
-0.515973 2.280892 -5.346669 133 69 63
-0.506329 2.280892 -5.346669 134 69 66
-0.480747 2.207701 -5.175101 133 68 67
-0.471137 2.206414 -5.172083 134 68 69
-0.461808 2.206414 -5.172083 136 69 72
-0.453271 2.210280 -5.181147 139 70 75
-0.445226 2.216754 -5.196323 134 67 71
-0.443385 2.255065 -5.286128 129 61 63
-0.434368 2.257756 -5.292436 124 58 59
-0.424821 2.257756 -5.292436 129 62 62
-0.414286 2.252381 -5.279835 128 66 60
-0.401417 2.233766 -5.236200 126 70 60
-0.390588 2.225882 -5.217720 125 73 61
-0.379836 2.218054 -5.199369 127 77 66
-0.368943 2.208990 -5.178122 125 74 62
-0.357309 2.194896 -5.145083 131 74 61
-0.347021 2.188548 -5.130204 127 69 55
-0.337572 2.187283 -5.127239 122 63 48
-0.322544 2.148779 -5.036981 129 72 61
-0.310811 2.130631 -4.994439 116 68 60
-0.301802 2.130631 -4.994439 102 70 66
-0.292793 2.130631 -4.994439 98 91 89
-0.285068 2.140271 -5.017038 101 114 115
-0.277115 2.148779 -5.036981 91 122 128
-0.268030 2.148779 -5.036981 90 120 132
-0.259091 2.150000 -5.039843 103 118 141
-0.250142 2.151222 -5.042708 110 115 141
-0.240772 2.148779 -5.036981 121 115 142
-0.231687 2.148779 -5.036981 134 114 142
-0.222601 2.148779 -5.036981 133 96 124
-0.213273 2.146342 -5.031267 111 63 89
-0.202703 2.130631 -4.994439 87 33 57
-0.193694 2.130631 -4.994439 84 32 54
-0.184685 2.130631 -4.994439 74 31 50
-0.187387 2.272673 -5.327401 63 30 47
-0.179177 2.290557 -5.369324 52 28 44
-0.169082 2.285024 -5.356355 51 33 49
-0.158940 2.278146 -5.340230 52 39 57
-0.148681 2.268585 -5.317820 54 43 60
-0.138922 2.265868 -5.311451 57 48 65
-0.129808 2.274039 -5.330603 62 51 68
-0.121359 2.296117 -5.382356 59 46 64
-0.112058 2.304507 -5.402024 51 39 53
-0.073983 2.332922 -5.468633 60 49 53
-0.064000 2.328615 -5.458537 62 51 57
-0.054154 2.328615 -5.458537 64 53 61
-0.044308 2.328615 -5.458537 64 52 62
-0.034440 2.327183 -5.455180 64 52 62
-0.023516 2.224574 -5.214652 63 52 57
-0.014484 2.283645 -5.353122 65 56 55
-0.004828 2.283645 -5.353122 66 60 57
0.004825 2.282268 -5.349893 61 57 57
0.014432 2.275406 -5.333808 50 47 56
0.024038 2.274039 -5.330603 41 38 52
0.033613 2.271308 -5.324203 45 43 56
0.043114 2.265868 -5.311451 49 46 54
0.051887 2.231132 -5.230025 56 47 51
0.060783 2.211572 -5.184175 60 45 49
0.070053 2.208990 -5.178122 61 44 51
0.079439 2.210280 -5.181147 64 45 55
0.108299 2.227192 -5.220790 68 47 54
0.117716 2.227192 -5.220790 67 46 48
0.127134 2.227192 -5.220790 72 52 50
0.138425 2.257756 -5.292436 72 54 48
0.144860 2.210280 -5.181147 70 53 48
0.152161 2.180980 -5.112463 66 48 44
0.160643 2.170969 -5.088998 65 47 43
0.169725 2.169725 -5.086080 67 50 44
0.178694 2.167239 -5.080254 69 52 45
0.187429 2.162286 -5.068642 71 54 46
0.195233 2.147560 -5.034122 73 58 48
0.204545 2.150000 -5.039843 73 60 48
0.213636 2.150000 -5.039843 74 61 49
0.227642 2.197445 -5.151059 77 63 50
0.237901 2.206414 -5.172083 77 63 50
0.247953 2.212866 -5.187206 75 61 48
0.257611 2.215457 -5.193281 77 62 49
0.266667 2.212866 -5.187206 78 62 49
0.276023 2.212866 -5.187206 77 60 49
0.285547 2.214160 -5.190242 75 58 48
0.295082 2.215457 -5.193281 72 55 46
0.366013 2.248366 -5.270424 73 55 45
0.375520 2.248366 -5.270424 75 57 48
0.385027 2.248366 -5.270424 80 61 55
0.395474 2.253722 -5.282980 81 62 57
0.405486 2.256410 -5.289280 79 61 57
0.415027 2.256410 -5.289280 74 56 52
0.424821 2.257756 -5.292436 71 53 49
0.435667 2.264512 -5.308272 72 54 51
0.448733 2.282268 -5.349893 74 56 54
0.458384 2.282268 -5.349893 75 57 55
0.500000 2.296117 -5.382356 74 55 58
0.714107 2.362047 -5.536906 71 52 52
0.720497 2.350311 -5.509393 75 57 55
0.729981 2.348852 -5.505973 74 56 55
0.739913 2.348852 -5.505973 74 58 58
0.749845 2.348852 -5.505973 76 62 62
0.759305 2.347394 -5.502558 76 62 63
0.767802 2.343034 -5.492336 70 55 60
0.775309 2.335803 -5.475385 68 49 63
0.777031 2.311546 -5.418523 64 42 63
0.769776 2.233766 -5.236200 62 38 62
0.779221 2.233766 -5.236200 59 34 52
0.788666 2.233766 -5.236200 57 33 45
0.792033 2.216754 -5.196323 63 40 47
0.799065 2.210280 -5.181147 78 52 55
0.802319 2.193623 -5.142100 93 66 65
0.807848 2.183497 -5.118363 84 70 66
0.817080 2.183497 -5.118363 72 86 79
0.828224 2.188548 -5.130204 72 101 99
0.838934 2.192352 -5.139121 80 110 116
0.852154 2.202561 -5.163052 91 110 125
0.862974 2.206414 -5.172083 103 99 121
0.872303 2.206414 -5.172083 107 85 107
0.877539 2.196169 -5.148069 114 75 92
0.882727 2.186020 -5.124277 125 76 87
0.887356 2.174713 -5.097772 136 84 90
0.895522 2.172216 -5.091919 141 85 89
0.905747 2.174713 -5.097772 126 69 72
0.913368 2.170969 -5.088998 119 57 62
0.920962 2.167239 -5.080254 114 46 53
0.930126 2.167239 -5.080254 108 38 46
0.939290 2.167239 -5.080254 106 40 44
0.948454 2.167239 -5.080254 108 43 47
0.957617 2.167239 -5.080254 107 45 46
0.967335 2.168481 -5.083165 107 49 48
0.977064 2.169725 -5.086080 111 57 55
1.033654 2.274039 -5.330603 117 65 62
1.043269 2.274039 -5.330603 119 69 64
1.052885 2.274039 -5.330603 119 69 62
1.063139 2.275406 -5.333808 118 65 57
1.073406 2.276775 -5.337018 117 65 54
1.082381 2.275406 -5.333808 116 62 52
1.090691 2.272673 -5.327401 116 60 49
1.097663 2.267226 -5.314633 117 62 49
1.103284 2.259104 -5.295596 119 64 48
1.109524 2.252381 -5.279835 117 64 48
1.108491 2.231132 -5.230025 116 65 46
1.115951 2.227192 -5.220790 108 61 41
1.110337 2.197445 -5.151059 110 64 41
1.121582 2.201280 -5.160048 115 64 43
1.132207 2.203844 -5.166059 113 63 40
1.390635 2.427197 -5.689623 125 71 50
1.391083 2.410191 -5.649760 127 71 50
1.385390 2.382872 -5.585720 123 69 45
