ply
        format ascii 1.0
        element vertex 76783
        property float x
        property float y
        property float z
        property uchar red
        property uchar green
        property uchar blue
        end_header
1.590734 -2.187902 -5.707930 155 155 155
1.592830 -2.176697 -5.678696 155 155 155
1.597958 -2.169751 -5.660576 155 155 155
1.589905 -2.145110 -5.596292 155 155 155
1.600000 -2.145110 -5.596292 155 155 155
1.595000 -2.125000 -5.543827 155 155 155
1.598009 -2.115744 -5.519678 155 155 155
1.600991 -2.106568 -5.495739 155 155 155
1.608911 -2.103961 -5.488937 155 155 155
1.618812 -2.103961 -5.488937 155 155 155
1.626700 -2.101360 -5.482152 155 155 155
1.636588 -2.101360 -5.482152 155 155 155
1.633354 -2.084611 -5.438457 155 155 155
1.627201 -2.064359 -5.385624 155 155 155
1.635922 -2.063107 -5.382356 155 155 155
1.632751 -2.046960 -5.340230 155 155 155
1.637455 -2.040816 -5.324203 155 155 155
1.644098 -2.037148 -5.314633 155 155 155
1.642857 -2.023809 -5.279835 155 155 155
1.651398 -2.022606 -5.276694 155 155 155
1.646226 -2.004717 -5.230025 155 155 155
1.654685 -2.003536 -5.226943 155 155 155
1.647608 -1.983664 -5.175101 155 155 155
1.645423 -1.969873 -5.139121 155 155 155
1.654693 -1.969873 -5.139121 155 155 155
1.667828 -1.974448 -5.151059 155 155 155
1.677120 -1.974448 -5.151059 155 155 155
1.676674 -1.963048 -5.121318 155 155 155
1.682997 -1.959654 -5.112463 155 155 155
1.682521 -1.948424 -5.083165 155 155 155
1.677273 -1.931818 -5.039843 155 155 155
1.684449 -1.929625 -5.034122 155 155 155
1.680180 -1.914414 -4.994439 155 155 155
1.689189 -1.914414 -4.994439 155 155 155
1.698198 -1.914414 -4.994439 155 155 155
1.707207 -1.914414 -4.994439 155 155 155
1.716216 -1.914414 -4.994439 155 155 155
1.725225 -1.914414 -4.994439 155 155 155
1.734234 -1.914414 -4.994439 155 155 155
1.743243 -1.914414 -4.994439 155 155 155
1.752252 -1.914414 -4.994439 155 155 155
1.761261 -1.914414 -4.994439 155 155 155
1.770270 -1.914414 -4.994439 155 155 155
1.779279 -1.914414 -4.994439 155 155 155
1.788288 -1.914414 -4.994439 155 155 155
2.002312 -1.965318 -5.127239 155 155 155
1.995413 -1.949541 -5.086080 155 155 155
1.985236 -1.930721 -5.036981 155 155 155
1.994321 -1.930721 -5.036981 155 155 155
2.097503 -2.021403 -5.273557 155 155 155
2.129808 -2.043269 -5.330603 155 155 155
4.119074 -3.748622 -9.779629 155 155 155
4.065005 -3.683640 -9.610101 155 155 155
4.008511 -3.617021 -9.436301 155 155 155
3.966457 -3.563941 -9.297823 155 155 155
3.909465 -3.497942 -9.125641 155 155 155
3.925926 -3.497942 -9.125641 155 155 155
3.898271 -3.458800 -9.023523 155 155 155
3.131001 -2.766477 -7.217350 155 155 155
3.128745 -2.753036 -7.182286 155 155 155
3.136621 -2.748585 -7.170673 155 155 155
3.043750 -2.656250 -6.929784 155 155 155
3.046729 -2.647975 -6.908195 155 155 155
3.030864 -2.623457 -6.844231 155 155 155
3.043210 -2.623457 -6.844231 155 155 155
3.173077 -2.724359 -7.107471 155 155 155
3.185897 -2.724359 -7.107471 155 155 155
3.158228 -2.689873 -7.017502 155 155 155
3.131250 -2.656250 -6.929784 155 155 155
3.107336 -2.625483 -6.849516 155 155 155
3.072243 -2.585551 -6.745341 155 155 155
3.084411 -2.585551 -6.745341 155 155 155
3.091876 -2.581625 -6.735097 155 155 155
3.041667 -2.529762 -6.599794 155 155 155
3.022091 -2.503682 -6.531755 155 155 155
3.033873 -2.503682 -6.531755 155 155 155
2.917647 -2.352941 -6.138494 155 155 155
2.875000 -2.309783 -6.025899 155 155 155
2.883910 -2.308214 -6.021808 155 155 155
2.863667 -2.283412 -5.957101 155 155 155
2.874412 -2.283412 -5.957101 155 155 155
2.668269 -2.043269 -5.330603 155 155 155
2.652381 -2.023809 -5.279835 155 155 155
2.636792 -2.004717 -5.230025 155 155 155
2.630715 -1.992966 -5.199369 155 155 155
2.611015 -1.971014 -5.142100 155 155 155
2.606690 -1.960784 -5.115411 155 155 155
2.600917 -1.949541 -5.086080 155 155 155
2.586364 -1.931818 -5.039843 155 155 155
2.595454 -1.931818 -5.039843 155 155 155
2.781554 -2.063107 -5.382356 155 155 155
2.791262 -2.063107 -5.382356 155 155 155
2.599099 -1.914414 -4.994439 155 155 155
2.608108 -1.914414 -4.994439 155 155 155
2.711785 -1.983664 -5.175101 155 155 155
2.721120 -1.983664 -5.175101 155 155 155
2.705202 -1.965318 -5.127239 155 155 155
2.692661 -1.949541 -5.086080 155 155 155
2.694111 -1.943968 -5.071540 155 155 155
2.683314 -1.929625 -5.034122 155 155 155
2.671171 -1.914414 -4.994439 155 155 155
2.680180 -1.914414 -4.994439 155 155 155
2.689189 -1.914414 -4.994439 155 155 155
-1.878378 -1.923423 -4.994439 155 155 155
-1.869369 -1.923423 -4.994439 155 155 155
-3.956886 -4.091018 -10.622902 155 155 155
-3.937725 -4.091018 -10.622902 155 155 155
-3.840376 -4.009390 -10.410942 155 155 155
-2.055556 -2.156566 -5.599825 155 155 155
-2.022472 -2.132334 -5.536906 155 155 155
-1.993816 -2.112554 -5.485543 155 155 155
-1.983921 -2.112554 -5.485543 155 155 155
-2.392006 -2.625673 -6.817927 155 155 155
-2.376055 -2.621642 -6.807462 155 155 155
-2.363776 -2.621642 -6.807462 155 155 155
-2.160753 -2.473570 -6.422971 155 155 155
-2.149167 -2.473570 -6.422971 155 155 155
-2.119167 -2.452261 -6.367640 155 155 155
-2.101646 -2.445240 -6.349408 155 155 155
-2.073864 -2.426136 -6.299803 155 155 155
-1.626126 -1.923423 -4.994439 155 155 155
-1.617117 -1.923423 -4.994439 155 155 155
-1.637615 -1.958716 -5.086080 155 155 155
-1.628440 -1.958716 -5.086080 155 155 155
-1.619266 -1.958716 -5.086080 155 155 155
-3.510000 -4.270000 -11.087654 155 155 155
-3.490000 -4.270000 -11.087654 155 155 155
-1.800259 -2.215305 -5.752349 155 155 155
-1.778350 -2.201031 -5.715285 155 155 155
-1.768041 -2.201031 -5.715285 155 155 155
-1.722222 -2.156566 -5.599825 155 155 155
-1.712121 -2.156566 -5.599825 155 155 155
-1.559283 -1.975708 -5.130204 155 155 155
-1.535817 -1.957593 -5.083165 155 155 155
-1.526648 -1.957593 -5.083165 155 155 155
-3.544445 -4.744444 -12.319615 155 155 155
-3.522222 -4.744444 -12.319615 155 155 155
-3.500000 -4.744444 -12.319615 155 155 155
-3.477778 -4.744444 -12.319615 155 155 155
-1.784792 -2.450502 -6.363072 155 155 155
-1.773314 -2.450502 -6.363072 155 155 155
-1.761836 -2.450502 -6.363072 155 155 155
-3.091837 -4.357143 -11.313932 155 155 155
-3.111111 -4.413437 -11.460107 155 155 155
-3.476744 -4.965117 -12.892621 155 155 155
-3.453488 -4.965117 -12.892621 155 155 155
-3.430233 -4.965117 -12.892621 155 155 155
-3.406977 -4.965117 -12.892621 155 155 155
-3.306818 -4.852273 -12.599607 155 155 155
-5.023697 -8.094787 -21.019249 155 155 155
-4.985782 -8.094787 -21.019249 155 155 155
-4.947867 -8.094787 -21.019249 155 155 155
-4.063205 -7.711061 -20.022852 155 155 155
-3.982143 -7.625000 -19.799381 155 155 155
-3.946429 -7.625000 -19.799381 155 155 155
-5.763158 -11.236842 -29.178036 155 155 155
-6.027778 -11.861111 -30.799038 155 155 155
-6.718750 -13.343750 -34.648918 155 155 155
-6.656250 -13.343750 -34.648918 155 155 155
-6.593750 -13.343750 -34.648918 155 155 155
-2.089744 -5.474359 -14.214941 155 155 155
-2.064103 -5.474359 -14.214941 155 155 155
-2.017391 -5.940869 -15.426301 155 155 155
-1.969019 -5.879518 -15.266994 155 155 155
-1.961739 -5.940869 -15.426301 155 155 155
-1.453453 -5.129129 -13.318503 155 155 155
-1.429429 -5.129129 -13.318503 155 155 155
-1.362445 -4.972343 -12.911387 155 155 155
-1.295775 -4.811267 -12.493131 155 155 155
-1.273239 -4.811267 -12.493131 155 155 155
-0.355240 -2.022499 -5.251701 155 155 155
-0.345767 -2.022499 -5.251701 155 155 155
-0.283227 -1.982589 -5.148069 155 155 155
-0.273623 -1.980290 -5.142100 155 155 155
-0.258797 -1.938706 -5.034122 155 155 155
-0.249716 -1.938706 -5.034122 155 155 155
-0.238739 -1.923423 -4.994439 155 155 155
-0.231818 -1.940909 -5.039843 155 155 155
-0.220721 -1.923423 -4.994439 155 155 155
-0.212911 -1.934315 -5.022720 155 155 155
-0.203851 -1.934315 -5.022720 155 155 155
-0.345382 -3.429719 -8.905746 155 155 155
-0.329317 -3.429719 -8.905746 155 155 155
-0.309217 -3.385530 -8.791004 155 155 155
-0.293360 -3.385530 -8.791004 155 155 155
0.006579 -2.809211 -7.294509 155 155 155
0.019688 -2.802297 -7.276557 155 155 155
0.031721 -2.708961 -7.034197 155 155 155
0.044304 -2.702532 -7.017502 155 155 155
0.056962 -2.702532 -7.017502 155 155 155
0.090164 -3.500000 -9.088241 155 155 155
0.106557 -3.500000 -9.088241 155 155 155
0.119048 -3.388889 -8.799726 155 155 155
0.134921 -3.388889 -8.799726 155 155 155
0.276867 -6.222222 -16.156872 155 155 155
0.306011 -6.222222 -16.156872 155 155 155
0.325664 -6.046018 -15.699333 155 155 155
0.353982 -6.046018 -15.699333 155 155 155
0.176829 -2.603658 -6.760765 155 155 155
0.187029 -2.576169 -6.689384 155 155 155
0.199095 -2.576169 -6.689384 155 155 155
0.208333 -2.541667 -6.599794 155 155 155
0.183509 -2.117793 -5.499146 155 155 155
0.193428 -2.117793 -5.499146 155 155 155
0.500000 -5.207317 -13.521529 155 155 155
0.524390 -5.207317 -13.521529 155 155 155
0.548781 -5.207317 -13.521529 155 155 155
0.261111 -2.372222 -6.159808 155 155 155
0.283333 -2.372222 -6.159808 155 155 155
0.304598 -2.454023 -6.372215 155 155 155
0.653789 -5.075780 -13.179975 155 155 155
0.677563 -5.075780 -13.179975 155 155 155
0.694118 -5.023530 -13.044298 155 155 155
0.708273 -4.957910 -12.873909 155 155 155
0.713881 -4.838527 -12.563913 155 155 155
0.735502 -4.831683 -12.546143 155 155 155
0.746518 -4.757660 -12.353931 155 155 155
0.764543 -4.731302 -12.285489 155 155 155
0.784530 -4.718232 -12.251552 155 155 155
0.777630 -4.548602 -11.811083 155 155 155
0.796813 -4.536520 -11.779712 155 155 155
0.816976 -4.530504 -11.764089 155 155 155
0.829396 -4.482940 -11.640581 155 155 155
0.840467 -4.430610 -11.504699 155 155 155
0.844784 -4.346056 -11.285144 155 155 155
0.865140 -4.346056 -11.285144 155 155 155
0.882129 -4.329531 -11.242234 155 155 155
0.898990 -4.313131 -11.199651 155 155 155
0.906600 -4.254047 -11.046230 155 155 155
0.911765 -4.186275 -10.870249 155 155 155
0.925700 -4.160779 -10.804048 155 155 155
0.932692 -4.105769 -10.661205 155 155 155
0.938389 -4.047393 -10.509624 155 155 155
0.949471 -4.014101 -10.423177 155 155 155
0.967136 -4.009390 -10.410942 155 155 155
0.972222 -3.953704 -10.266346 155 155 155
0.977169 -3.899543 -10.125711 155 155 155
0.989784 -3.877412 -10.068244 155 155 155
1.002257 -3.855531 -10.011426 155 155 155
1.013453 -3.829597 -9.944084 155 155 155
1.023359 -3.799778 -9.866655 155 155 155
1.037694 -3.787140 -9.833839 155 155 155
1.043860 -3.745614 -9.726012 155 155 155
1.056769 -3.729258 -9.683540 155 155 155
1.060345 -3.681035 -9.558322 155 155 155
1.077586 -3.681035 -9.558322 155 155 155
1.088960 -3.661308 -9.507098 155 155 155
1.097872 -3.634043 -9.436301 155 155 155
1.110170 -3.618644 -9.396317 155 155 155
1.111808 -3.569488 -9.268676 155 155 155
1.125000 -3.558333 -9.239712 155 155 155
1.128733 -3.518023 -9.135039 155 155 155
1.137014 -3.492842 -9.069655 155 155 155
1.148676 -3.478615 -9.032712 155 155 155
1.153226 -3.443548 -8.941656 155 155 155
1.151936 -3.392254 -8.808464 155 155 155
1.165510 -3.385530 -8.791004 155 155 155
1.170923 -3.355599 -8.713284 155 155 155
1.186641 -3.355599 -8.713284 155 155 155
1.224000 -3.416000 -8.870123 155 155 155
1.241241 -3.419420 -8.879002 155 155 155
1.256000 -3.416000 -8.870123 155 155 155
1.248283 -3.352306 -8.704733 155 155 155
1.252918 -3.322957 -8.628525 155 155 155
1.250240 -3.275168 -8.504433 155 155 155
1.245283 -3.222641 -8.368041 155 155 155
1.248598 -3.192523 -8.289835 155 155 155
1.242647 -3.139706 -8.152687 155 155 155
1.251601 -3.125343 -8.115392 155 155 155
1.261623 -3.113947 -8.085800 155 155 155
1.268116 -3.094203 -8.034532 155 155 155
1.268817 -3.060932 -7.948139 155 155 155
1.282005 -3.058192 -7.941023 155 155 155
1.292857 -3.050000 -7.919753 155 155 155
1.303651 -3.041852 -7.898596 155 155 155
1.305115 -3.012346 -7.821978 155 155 155
1.312281 -2.996491 -7.780810 155 155 155
1.311362 -2.962706 -7.693081 155 155 155
1.319516 -2.949914 -7.659864 155 155 155
1.333333 -2.949914 -7.659864 155 155 155
1.345988 -2.947368 -7.653255 155 155 155
1.345858 -2.917165 -7.574828 155 155 155
1.354894 -2.907234 -7.549041 155 155 155
1.358108 -2.885135 -7.491658 155 155 155
1.364706 -2.870588 -7.453885 155 155 155
1.363258 -2.839568 -7.373336 155 155 155
1.366337 -2.818482 -7.318583 155 155 155
1.370492 -2.800000 -7.270593 155 155 155
1.370130 -2.772727 -7.199775 155 155 155
1.365385 -2.737180 -7.107471 155 155 155
1.371611 -2.724083 -7.073463 155 155 155
1.374505 -2.704671 -7.023058 155 155 155
1.375196 -2.681319 -6.962420 155 155 155
1.365251 -2.637838 -6.849516 155 155 155
1.376543 -2.635803 -6.844231 155 155 155
1.385681 -2.629715 -6.828424 155 155 155
1.388379 -2.611621 -6.781440 155 155 155
1.395278 -2.601676 -6.755615 155 155 155
1.407464 -2.601676 -6.755615 155 155 155
1.419650 -2.601676 -6.755615 155 155 155
1.394659 -2.534125 -6.580210 155 155 155
1.394118 -2.511765 -6.522149 155 155 155
1.369627 -2.446991 -6.353956 155 155 155
1.381089 -2.446991 -6.353956 155 155 155
1.411765 -2.480755 -6.441629 155 155 155
1.423384 -2.480755 -6.441629 155 155 155
1.435004 -2.480755 -6.441629 155 155 155
1.473373 -2.526627 -6.560742 155 155 155
1.485207 -2.526627 -6.560742 155 155 155
1.483871 -2.504399 -6.503023 155 155 155
1.481481 -2.480755 -6.441629 155 155 155
1.489855 -2.475362 -6.427625 155 155 155
1.490647 -2.457554 -6.381383 155 155 155
1.500000 -2.454023 -6.372215 155 155 155
1.493258 -2.424414 -6.295332 155 155 155
1.490858 -2.402250 -6.237780 155 155 155
1.500000 -2.398876 -6.229019 155 155 155
1.500697 -2.382148 -6.185581 155 155 155
1.504511 -2.370576 -6.155533 155 155 155
1.515614 -2.370576 -6.155533 155 155 155
1.532033 -2.378830 -6.176966 155 155 155
1.543175 -2.378830 -6.176966 155 155 155
1.544637 -2.364014 -6.138494 155 155 155
1.546080 -2.349381 -6.100497 155 155 155
1.553878 -2.344544 -6.087936 155 155 155
1.552076 -2.325392 -6.038205 155 155 155
1.559783 -2.320652 -6.025899 155 155 155
1.553763 -2.295699 -5.961104 155 155 155
1.554072 -2.280374 -5.921310 155 155 155
1.558511 -2.271277 -5.897688 155 155 155
1.569149 -2.271277 -5.897688 155 155 155
1.578737 -2.269768 -5.893769 155 155 155
1.573684 -2.247368 -5.835607 155 155 155
1.584211 -2.247368 -5.835607 155 155 155
1.589508 -2.240000 -5.816474 155 155 155
1.587508 -2.222511 -5.771062 155 155 155
1.580438 -2.198198 -5.707930 155 155 155
1.590734 -2.198198 -5.707930 155 155 155
1.592830 -2.186940 -5.678696 155 155 155
1.597958 -2.179962 -5.660576 155 155 155
1.589905 -2.155205 -5.596292 155 155 155
1.600000 -2.155205 -5.596292 155 155 155
1.595000 -2.135000 -5.543827 155 155 155
1.598009 -2.125700 -5.519678 155 155 155
1.600991 -2.116481 -5.495739 155 155 155
1.608911 -2.113861 -5.488937 155 155 155
1.618812 -2.113861 -5.488937 155 155 155
1.626700 -2.111248 -5.482152 155 155 155
1.636588 -2.111248 -5.482152 155 155 155
1.633354 -2.094421 -5.438457 155 155 155
1.627201 -2.074074 -5.385624 155 155 155
1.635922 -2.072815 -5.382356 155 155 155
1.632751 -2.056592 -5.340230 155 155 155
1.637455 -2.050420 -5.324203 155 155 155
1.644098 -2.046735 -5.314633 155 155 155
1.642857 -2.033333 -5.279835 155 155 155
1.651398 -2.032124 -5.276694 155 155 155
1.646226 -2.014151 -5.230025 155 155 155
1.654685 -2.012964 -5.226943 155 155 155
1.647608 -1.992999 -5.175101 155 155 155
1.645423 -1.979143 -5.139121 155 155 155
1.654693 -1.979143 -5.139121 155 155 155
1.667828 -1.983740 -5.151059 155 155 155
1.677120 -1.983740 -5.151059 155 155 155
1.676674 -1.972286 -5.121318 155 155 155
1.682997 -1.968876 -5.112463 155 155 155
1.682521 -1.957593 -5.083165 155 155 155
1.677273 -1.940909 -5.039843 155 155 155
1.684449 -1.938706 -5.034122 155 155 155
1.680180 -1.923423 -4.994439 155 155 155
1.689189 -1.923423 -4.994439 155 155 155
1.698198 -1.923423 -4.994439 155 155 155
1.707207 -1.923423 -4.994439 155 155 155
1.716216 -1.923423 -4.994439 155 155 155
1.725225 -1.923423 -4.994439 155 155 155
1.734234 -1.923423 -4.994439 155 155 155
1.743243 -1.923423 -4.994439 155 155 155
1.752252 -1.923423 -4.994439 155 155 155
1.761261 -1.923423 -4.994439 155 155 155
1.770270 -1.923423 -4.994439 155 155 155
1.779279 -1.923423 -4.994439 155 155 155
1.788288 -1.923423 -4.994439 155 155 155
2.002312 -1.974566 -5.127239 155 155 155
1.995413 -1.958716 -5.086080 155 155 155
1.985236 -1.939807 -5.036981 155 155 155
1.994321 -1.939807 -5.036981 155 155 155
2.097503 -2.030915 -5.273557 155 155 155
2.129808 -2.052885 -5.330603 155 155 155
4.119074 -3.766262 -9.779629 155 155 155
4.065005 -3.700975 -9.610101 155 155 155
4.008511 -3.634043 -9.436301 155 155 155
3.966457 -3.580713 -9.297823 155 155 155
3.909465 -3.514403 -9.125641 155 155 155
3.925926 -3.514403 -9.125641 155 155 155
3.898271 -3.475076 -9.023523 155 155 155
3.131001 -2.779495 -7.217350 155 155 155
3.128745 -2.765992 -7.182286 155 155 155
3.136621 -2.761520 -7.170673 155 155 155
3.043750 -2.668750 -6.929784 155 155 155
3.046729 -2.660436 -6.908195 155 155 155
3.030864 -2.635803 -6.844231 155 155 155
3.043210 -2.635803 -6.844231 155 155 155
3.173077 -2.737180 -7.107471 155 155 155
3.185897 -2.737180 -7.107471 155 155 155
3.158228 -2.702532 -7.017502 155 155 155
3.131250 -2.668750 -6.929784 155 155 155
3.107336 -2.637838 -6.849516 155 155 155
3.072243 -2.597719 -6.745341 155 155 155
3.084411 -2.597719 -6.745341 155 155 155
3.091876 -2.593774 -6.735097 155 155 155
3.041667 -2.541667 -6.599794 155 155 155
3.022091 -2.515464 -6.531755 155 155 155
3.033873 -2.515464 -6.531755 155 155 155
2.917647 -2.364014 -6.138494 155 155 155
2.875000 -2.320652 -6.025899 155 155 155
2.883910 -2.319077 -6.021808 155 155 155
2.863667 -2.294157 -5.957101 155 155 155
2.874412 -2.294157 -5.957101 155 155 155
2.668269 -2.052885 -5.330603 155 155 155
2.652381 -2.033333 -5.279835 155 155 155
2.636792 -2.014151 -5.230025 155 155 155
2.630715 -2.002345 -5.199369 155 155 155
2.611015 -1.980290 -5.142100 155 155 155
2.606690 -1.970012 -5.115411 155 155 155
2.600917 -1.958716 -5.086080 155 155 155
2.586364 -1.940909 -5.039843 155 155 155
2.595454 -1.940909 -5.039843 155 155 155
2.781554 -2.072815 -5.382356 155 155 155
2.791262 -2.072815 -5.382356 155 155 155
2.599099 -1.923423 -4.994439 155 155 155
2.608108 -1.923423 -4.994439 155 155 155
2.711785 -1.992999 -5.175101 155 155 155
2.721120 -1.992999 -5.175101 155 155 155
2.705202 -1.974566 -5.127239 155 155 155
2.692661 -1.958716 -5.086080 155 155 155
2.694111 -1.953116 -5.071540 155 155 155
2.683314 -1.938706 -5.034122 155 155 155
2.671171 -1.923423 -4.994439 155 155 155
2.680180 -1.923423 -4.994439 155 155 155
2.689189 -1.923423 -4.994439 155 155 155
-1.878378 -1.932432 -4.994439 155 155 155
-1.869369 -1.932432 -4.994439 155 155 155
-3.956886 -4.110179 -10.622902 155 155 155
-3.937725 -4.110179 -10.622902 155 155 155
-3.840376 -4.028169 -10.410942 155 155 155
-2.055556 -2.166667 -5.599825 155 155 155
-2.022472 -2.142322 -5.536906 155 155 155
-1.993816 -2.122449 -5.485543 155 155 155
-1.983921 -2.122449 -5.485543 155 155 155
-2.392006 -2.637971 -6.817927 155 155 155
-2.376055 -2.633922 -6.807462 155 155 155
-2.363776 -2.633922 -6.807462 155 155 155
-2.160753 -2.485156 -6.422971 155 155 155
-2.149167 -2.485156 -6.422971 155 155 155
-2.119167 -2.463747 -6.367640 155 155 155
-2.101646 -2.456693 -6.349408 155 155 155
-2.073864 -2.437500 -6.299803 155 155 155
-1.626126 -1.932432 -4.994439 155 155 155
-1.617117 -1.932432 -4.994439 155 155 155
-1.637615 -1.967890 -5.086080 155 155 155
-1.628440 -1.967890 -5.086080 155 155 155
-1.619266 -1.967890 -5.086080 155 155 155
-3.510000 -4.290000 -11.087654 155 155 155
-3.490000 -4.290000 -11.087654 155 155 155
-1.800259 -2.225681 -5.752349 155 155 155
-1.778350 -2.211340 -5.715285 155 155 155
-1.768041 -2.211340 -5.715285 155 155 155
-1.722222 -2.166667 -5.599825 155 155 155
-1.712121 -2.166667 -5.599825 155 155 155
-1.559283 -1.984962 -5.130204 155 155 155
-1.535817 -1.966762 -5.083165 155 155 155
-1.526648 -1.966762 -5.083165 155 155 155
-3.544445 -4.766667 -12.319615 155 155 155
-3.522222 -4.766667 -12.319615 155 155 155
-3.500000 -4.766667 -12.319615 155 155 155
-3.477778 -4.766667 -12.319615 155 155 155
-1.784792 -2.461980 -6.363072 155 155 155
-1.773314 -2.461980 -6.363072 155 155 155
-1.761836 -2.461980 -6.363072 155 155 155
-3.091837 -4.377551 -11.313932 155 155 155
-3.111111 -4.434109 -11.460107 155 155 155
-3.476744 -4.988372 -12.892621 155 155 155
-3.453488 -4.988372 -12.892621 155 155 155
-3.430233 -4.988372 -12.892621 155 155 155
-3.406977 -4.988372 -12.892621 155 155 155
-3.306818 -4.875000 -12.599607 155 155 155
-5.023697 -8.132702 -21.019249 155 155 155
-4.985782 -8.132702 -21.019249 155 155 155
-4.947867 -8.132702 -21.019249 155 155 155
-4.063205 -7.747179 -20.022852 155 155 155
-3.982143 -7.660714 -19.799381 155 155 155
-3.946429 -7.660714 -19.799381 155 155 155
-5.763158 -11.289474 -29.178036 155 155 155
-6.027778 -11.916667 -30.799038 155 155 155
-6.718750 -13.406250 -34.648918 155 155 155
-6.656250 -13.406250 -34.648918 155 155 155
-6.593750 -13.406250 -34.648918 155 155 155
-2.089744 -5.500000 -14.214941 155 155 155
-2.064103 -5.500000 -14.214941 155 155 155
-2.017391 -5.968696 -15.426301 155 155 155
-1.969019 -5.907057 -15.266994 155 155 155
-1.961739 -5.968696 -15.426301 155 155 155
-1.453453 -5.153153 -13.318503 155 155 155
-1.429429 -5.153153 -13.318503 155 155 155
-1.362445 -4.995633 -12.911387 155 155 155
-1.295775 -4.833803 -12.493131 155 155 155
-1.273239 -4.833803 -12.493131 155 155 155
-0.355240 -2.031972 -5.251701 155 155 155
-0.345767 -2.031972 -5.251701 155 155 155
-0.283227 -1.991875 -5.148069 155 155 155
-0.273623 -1.989565 -5.142100 155 155 155
-0.258797 -1.947787 -5.034122 155 155 155
-0.249716 -1.947787 -5.034122 155 155 155
-0.238739 -1.932432 -4.994439 155 155 155
-0.231818 -1.950000 -5.039843 155 155 155
-0.220721 -1.932432 -4.994439 155 155 155
-0.212911 -1.943375 -5.022720 155 155 155
-0.203851 -1.943375 -5.022720 155 155 155
-0.345382 -3.445783 -8.905746 155 155 155
-0.329317 -3.445783 -8.905746 155 155 155
-0.309217 -3.401387 -8.791004 155 155 155
-0.293360 -3.401387 -8.791004 155 155 155
0.006579 -2.822368 -7.294509 155 155 155
0.019688 -2.815423 -7.276557 155 155 155
0.031721 -2.721649 -7.034197 155 155 155
0.044304 -2.715190 -7.017502 155 155 155
0.056962 -2.715190 -7.017502 155 155 155
0.090164 -3.516393 -9.088241 155 155 155
0.106557 -3.516393 -9.088241 155 155 155
0.119048 -3.404762 -8.799726 155 155 155
0.134921 -3.404762 -8.799726 155 155 155
0.276867 -6.251366 -16.156872 155 155 155
0.306011 -6.251366 -16.156872 155 155 155
0.325664 -6.074336 -15.699333 155 155 155
0.353982 -6.074336 -15.699333 155 155 155
0.176829 -2.615854 -6.760765 155 155 155
0.187029 -2.588235 -6.689384 155 155 155
0.199095 -2.588235 -6.689384 155 155 155
0.208333 -2.553571 -6.599794 155 155 155
0.183509 -2.127712 -5.499146 155 155 155
0.193428 -2.127712 -5.499146 155 155 155
0.500000 -5.231707 -13.521529 155 155 155
0.524390 -5.231707 -13.521529 155 155 155
0.548781 -5.231707 -13.521529 155 155 155
0.261111 -2.383333 -6.159808 155 155 155
0.283333 -2.383333 -6.159808 155 155 155
0.304598 -2.465517 -6.372215 155 155 155
0.653789 -5.099554 -13.179975 155 155 155
0.677563 -5.099554 -13.179975 155 155 155
0.694118 -5.047059 -13.044298 155 155 155
0.708273 -4.981132 -12.873909 155 155 155
0.713881 -4.861190 -12.563913 155 155 155
0.735502 -4.854314 -12.546143 155 155 155
0.746518 -4.779944 -12.353931 155 155 155
0.764543 -4.753463 -12.285489 155 155 155
0.784530 -4.740332 -12.251552 155 155 155
0.777630 -4.569907 -11.811083 155 155 155
0.796813 -4.557769 -11.779712 155 155 155
0.816976 -4.551724 -11.764089 155 155 155
0.829396 -4.503937 -11.640581 155 155 155
0.840467 -4.451362 -11.504699 155 155 155
0.844784 -4.366412 -11.285144 155 155 155
0.865140 -4.366412 -11.285144 155 155 155
0.882129 -4.349810 -11.242234 155 155 155
0.898990 -4.333333 -11.199651 155 155 155
0.906600 -4.273973 -11.046230 155 155 155
0.911765 -4.205883 -10.870249 155 155 155
0.925700 -4.180268 -10.804048 155 155 155
0.932692 -4.125000 -10.661205 155 155 155
0.938389 -4.066351 -10.509624 155 155 155
0.949471 -4.032902 -10.423177 155 155 155
0.967136 -4.028169 -10.410942 155 155 155
0.972222 -3.972222 -10.266346 155 155 155
0.977169 -3.917808 -10.125711 155 155 155
0.989784 -3.895573 -10.068244 155 155 155
1.002257 -3.873589 -10.011426 155 155 155
1.013453 -3.847534 -9.944084 155 155 155
1.023359 -3.817575 -9.866655 155 155 155
1.037694 -3.804878 -9.833839 155 155 155
1.043860 -3.763158 -9.726012 155 155 155
1.056769 -3.746725 -9.683540 155 155 155
1.060345 -3.698276 -9.558322 155 155 155
1.077586 -3.698276 -9.558322 155 155 155
1.088960 -3.678457 -9.507098 155 155 155
1.097872 -3.651064 -9.436301 155 155 155
1.110170 -3.635593 -9.396317 155 155 155
1.111808 -3.586207 -9.268676 155 155 155
1.125000 -3.575000 -9.239712 155 155 155
1.128733 -3.534501 -9.135039 155 155 155
1.137014 -3.509202 -9.069655 155 155 155
1.148676 -3.494908 -9.032712 155 155 155
1.153226 -3.459677 -8.941656 155 155 155
1.151936 -3.408143 -8.808464 155 155 155
1.165510 -3.401387 -8.791004 155 155 155
1.170923 -3.371316 -8.713284 155 155 155
1.186641 -3.371316 -8.713284 155 155 155
1.224000 -3.432000 -8.870123 155 155 155
1.241241 -3.435436 -8.879002 155 155 155
1.256000 -3.432000 -8.870123 155 155 155
1.248283 -3.368008 -8.704733 155 155 155
1.252918 -3.338521 -8.628525 155 155 155
1.250240 -3.290508 -8.504433 155 155 155
1.245283 -3.237736 -8.368041 155 155 155
1.248598 -3.207477 -8.289835 155 155 155
1.242647 -3.154412 -8.152687 155 155 155
1.251601 -3.139982 -8.115392 155 155 155
1.261623 -3.128532 -8.085800 155 155 155
1.268116 -3.108696 -8.034532 155 155 155
1.268817 -3.075269 -7.948139 155 155 155
1.282005 -3.072516 -7.941023 155 155 155
1.292857 -3.064286 -7.919753 155 155 155
1.303651 -3.056100 -7.898596 155 155 155
1.305115 -3.026455 -7.821978 155 155 155
1.312281 -3.010526 -7.780810 155 155 155
1.311362 -2.976583 -7.693081 155 155 155
1.319516 -2.963731 -7.659864 155 155 155
1.333333 -2.963731 -7.659864 155 155 155
1.345988 -2.961174 -7.653255 155 155 155
1.345858 -2.930828 -7.574828 155 155 155
1.354894 -2.920851 -7.549041 155 155 155
1.358108 -2.898649 -7.491658 155 155 155
1.364706 -2.884034 -7.453885 155 155 155
1.363258 -2.852868 -7.373336 155 155 155
1.366337 -2.831683 -7.318583 155 155 155
1.370492 -2.813115 -7.270593 155 155 155
1.370130 -2.785714 -7.199775 155 155 155
1.365385 -2.750000 -7.107471 155 155 155
1.371611 -2.736842 -7.073463 155 155 155
1.374505 -2.717340 -7.023058 155 155 155
1.375196 -2.693877 -6.962420 155 155 155
1.365251 -2.650193 -6.849516 155 155 155
1.376543 -2.648148 -6.844231 155 155 155
1.385681 -2.642032 -6.828424 155 155 155
1.388379 -2.623853 -6.781440 155 155 155
1.395278 -2.613861 -6.755615 155 155 155
1.407464 -2.613861 -6.755615 155 155 155
1.419650 -2.613861 -6.755615 155 155 155
1.394659 -2.545994 -6.580210 155 155 155
1.394118 -2.523530 -6.522149 155 155 155
1.369627 -2.458453 -6.353956 155 155 155
1.381089 -2.458453 -6.353956 155 155 155
1.411765 -2.492375 -6.441629 155 155 155
1.423384 -2.492375 -6.441629 155 155 155
1.435004 -2.492375 -6.441629 155 155 155
1.473373 -2.538461 -6.560742 155 155 155
1.485207 -2.538461 -6.560742 155 155 155
1.483871 -2.516129 -6.503023 155 155 155
1.481481 -2.492375 -6.441629 155 155 155
1.489855 -2.486957 -6.427625 155 155 155
1.490647 -2.469065 -6.381383 155 155 155
1.500000 -2.465517 -6.372215 155 155 155
1.493258 -2.435770 -6.295332 155 155 155
1.490858 -2.413502 -6.237780 155 155 155
1.500000 -2.410112 -6.229019 155 155 155
1.500697 -2.393306 -6.185581 155 155 155
1.504511 -2.381679 -6.155533 155 155 155
1.515614 -2.381679 -6.155533 155 155 155
1.532033 -2.389972 -6.176966 155 155 155
1.543175 -2.389972 -6.176966 155 155 155
1.544637 -2.375087 -6.138494 155 155 155
1.546080 -2.360385 -6.100497 155 155 155
1.553878 -2.355525 -6.087936 155 155 155
1.552076 -2.336283 -6.038205 155 155 155
1.559783 -2.331522 -6.025899 155 155 155
1.553763 -2.306452 -5.961104 155 155 155
1.554072 -2.291055 -5.921310 155 155 155
1.558511 -2.281915 -5.897688 155 155 155
1.569149 -2.281915 -5.897688 155 155 155
1.578737 -2.280399 -5.893769 155 155 155
1.573684 -2.257895 -5.835607 155 155 155
1.584211 -2.257895 -5.835607 155 155 155
1.589508 -2.250492 -5.816474 155 155 155
1.587508 -2.232921 -5.771062 155 155 155
1.580438 -2.208494 -5.707930 155 155 155
1.590734 -2.208494 -5.707930 155 155 155
1.592830 -2.197183 -5.678696 155 155 155
1.597958 -2.190172 -5.660576 155 155 155
1.589905 -2.165300 -5.596292 155 155 155
1.600000 -2.165300 -5.596292 155 155 155
1.595000 -2.145000 -5.543827 155 155 155
1.598009 -2.135657 -5.519678 155 155 155
1.600991 -2.126394 -5.495739 155 155 155
1.608911 -2.123762 -5.488937 155 155 155
1.618812 -2.123762 -5.488937 155 155 155
1.626700 -2.121137 -5.482152 155 155 155
1.636588 -2.121137 -5.482152 155 155 155
1.633354 -2.104231 -5.438457 155 155 155
1.627201 -2.083789 -5.385624 155 155 155
1.635922 -2.082524 -5.382356 155 155 155
1.632751 -2.066225 -5.340230 155 155 155
1.637455 -2.060024 -5.324203 155 155 155
1.644098 -2.056321 -5.314633 155 155 155
1.642857 -2.042857 -5.279835 155 155 155
1.651398 -2.041642 -5.276694 155 155 155
1.646226 -2.023585 -5.230025 155 155 155
1.654685 -2.022393 -5.226943 155 155 155
1.647608 -2.002334 -5.175101 155 155 155
1.645423 -1.988412 -5.139121 155 155 155
1.654693 -1.988412 -5.139121 155 155 155
1.667828 -1.993031 -5.151059 155 155 155
1.677120 -1.993031 -5.151059 155 155 155
1.676674 -1.981524 -5.121318 155 155 155
1.682997 -1.978098 -5.112463 155 155 155
1.682521 -1.966762 -5.083165 155 155 155
1.677273 -1.950000 -5.039843 155 155 155
1.684449 -1.947787 -5.034122 155 155 155
1.680180 -1.932432 -4.994439 155 155 155
1.689189 -1.932432 -4.994439 155 155 155
1.698198 -1.932432 -4.994439 155 155 155
1.707207 -1.932432 -4.994439 155 155 155
1.716216 -1.932432 -4.994439 155 155 155
1.725225 -1.932432 -4.994439 155 155 155
1.734234 -1.932432 -4.994439 155 155 155
1.743243 -1.932432 -4.994439 155 155 155
1.752252 -1.932432 -4.994439 155 155 155
1.761261 -1.932432 -4.994439 155 155 155
1.770270 -1.932432 -4.994439 155 155 155
1.779279 -1.932432 -4.994439 155 155 155
1.788288 -1.932432 -4.994439 155 155 155
2.002312 -1.983815 -5.127239 155 155 155
1.995413 -1.967890 -5.086080 155 155 155
1.985236 -1.948893 -5.036981 155 155 155
1.994321 -1.948893 -5.036981 155 155 155
2.097503 -2.040428 -5.273557 155 155 155
2.129808 -2.062500 -5.330603 155 155 155
4.119074 -3.783903 -9.779629 155 155 155
4.065005 -3.718310 -9.610101 155 155 155
4.008511 -3.651064 -9.436301 155 155 155
3.966457 -3.597484 -9.297823 155 155 155
3.909465 -3.530864 -9.125641 155 155 155
3.925926 -3.530864 -9.125641 155 155 155
3.898271 -3.491353 -9.023523 155 155 155
3.131001 -2.792514 -7.217350 155 155 155
3.128745 -2.778947 -7.182286 155 155 155
3.136621 -2.774454 -7.170673 155 155 155
3.043750 -2.681250 -6.929784 155 155 155
3.046729 -2.672897 -6.908195 155 155 155
3.030864 -2.648148 -6.844231 155 155 155
3.043210 -2.648148 -6.844231 155 155 155
3.173077 -2.750000 -7.107471 155 155 155
3.185897 -2.750000 -7.107471 155 155 155
3.158228 -2.715190 -7.017502 155 155 155
3.131250 -2.681250 -6.929784 155 155 155
3.107336 -2.650193 -6.849516 155 155 155
3.072243 -2.609886 -6.745341 155 155 155
3.084411 -2.609886 -6.745341 155 155 155
3.091876 -2.605922 -6.735097 155 155 155
3.041667 -2.553571 -6.599794 155 155 155
3.022091 -2.527246 -6.531755 155 155 155
3.033873 -2.527246 -6.531755 155 155 155
2.917647 -2.375087 -6.138494 155 155 155
2.875000 -2.331522 -6.025899 155 155 155
2.883910 -2.329939 -6.021808 155 155 155
2.863667 -2.304903 -5.957101 155 155 155
2.874412 -2.304903 -5.957101 155 155 155
2.668269 -2.062500 -5.330603 155 155 155
2.652381 -2.042857 -5.279835 155 155 155
2.636792 -2.023585 -5.230025 155 155 155
2.630715 -2.011723 -5.199369 155 155 155
2.611015 -1.989565 -5.142100 155 155 155
2.606690 -1.979239 -5.115411 155 155 155
2.600917 -1.967890 -5.086080 155 155 155
2.586364 -1.950000 -5.039843 155 155 155
2.595454 -1.950000 -5.039843 155 155 155
2.781554 -2.082524 -5.382356 155 155 155
2.791262 -2.082524 -5.382356 155 155 155
2.599099 -1.932432 -4.994439 155 155 155
2.608108 -1.932432 -4.994439 155 155 155
2.711785 -2.002334 -5.175101 155 155 155
2.721120 -2.002334 -5.175101 155 155 155
2.705202 -1.983815 -5.127239 155 155 155
2.692661 -1.967890 -5.086080 155 155 155
2.694111 -1.962264 -5.071540 155 155 155
2.683314 -1.947787 -5.034122 155 155 155
2.671171 -1.932432 -4.994439 155 155 155
2.680180 -1.932432 -4.994439 155 155 155
2.689189 -1.932432 -4.994439 155 155 155
-1.878378 -1.941441 -4.994439 155 155 155
-1.869369 -1.941441 -4.994439 155 155 155
-3.956886 -4.129341 -10.622902 155 155 155
-3.937725 -4.129341 -10.622902 155 155 155
-3.840376 -4.046948 -10.410942 155 155 155
-2.055556 -2.176768 -5.599825 155 155 155
-2.022472 -2.152310 -5.536906 155 155 155
-1.993816 -2.132344 -5.485543 155 155 155
-1.983921 -2.132344 -5.485543 155 155 155
-2.392006 -2.650269 -6.817927 155 155 155
-2.376055 -2.646201 -6.807462 155 155 155
-2.363776 -2.646201 -6.807462 155 155 155
-2.160753 -2.496742 -6.422971 155 155 155
-2.149167 -2.496742 -6.422971 155 155 155
-2.119167 -2.475233 -6.367640 155 155 155
-2.101646 -2.468146 -6.349408 155 155 155
-2.073864 -2.448864 -6.299803 155 155 155
-1.626126 -1.941441 -4.994439 155 155 155
-1.617117 -1.941441 -4.994439 155 155 155
-1.637615 -1.977064 -5.086080 155 155 155
-1.628440 -1.977064 -5.086080 155 155 155
-1.619266 -1.977064 -5.086080 155 155 155
-3.510000 -4.310000 -11.087654 155 155 155
-3.490000 -4.310000 -11.087654 155 155 155
-1.800259 -2.236057 -5.752349 155 155 155
-1.778350 -2.221649 -5.715285 155 155 155
-1.768041 -2.221649 -5.715285 155 155 155
-1.722222 -2.176768 -5.599825 155 155 155
-1.712121 -2.176768 -5.599825 155 155 155
-1.559283 -1.994216 -5.130204 155 155 155
-1.535817 -1.975931 -5.083165 155 155 155
-1.526648 -1.975931 -5.083165 155 155 155
-3.544445 -4.788889 -12.319615 155 155 155
-3.522222 -4.788889 -12.319615 155 155 155
-3.500000 -4.788889 -12.319615 155 155 155
-3.477778 -4.788889 -12.319615 155 155 155
-1.784792 -2.473458 -6.363072 155 155 155
-1.773314 -2.473458 -6.363072 155 155 155
-1.761836 -2.473458 -6.363072 155 155 155
-3.091837 -4.397959 -11.313932 155 155 155
-3.111111 -4.454781 -11.460107 155 155 155
-3.476744 -5.011628 -12.892621 155 155 155
-3.453488 -5.011628 -12.892621 155 155 155
-3.430233 -5.011628 -12.892621 155 155 155
-3.406977 -5.011628 -12.892621 155 155 155
-3.306818 -4.897727 -12.599607 155 155 155
-5.023697 -8.170616 -21.019249 155 155 155
-4.985782 -8.170616 -21.019249 155 155 155
-4.947867 -8.170616 -21.019249 155 155 155
-4.063205 -7.783296 -20.022852 155 155 155
-3.982143 -7.696429 -19.799381 155 155 155
-3.946429 -7.696429 -19.799381 155 155 155
-5.763158 -11.342105 -29.178036 155 155 155
-6.027778 -11.972222 -30.799038 155 155 155
-6.718750 -13.468750 -34.648918 155 155 155
-6.656250 -13.468750 -34.648918 155 155 155
-6.593750 -13.468750 -34.648918 155 155 155
-2.089744 -5.525641 -14.214941 155 155 155
-2.064103 -5.525641 -14.214941 155 155 155
-2.017391 -5.996522 -15.426301 155 155 155
-1.969019 -5.934596 -15.266994 155 155 155
-1.961739 -5.996522 -15.426301 155 155 155
-1.453453 -5.177177 -13.318503 155 155 155
-1.429429 -5.177177 -13.318503 155 155 155
-1.362445 -5.018923 -12.911387 155 155 155
-1.295775 -4.856338 -12.493131 155 155 155
-1.273239 -4.856338 -12.493131 155 155 155
-0.355240 -2.041445 -5.251701 155 155 155
-0.345767 -2.041445 -5.251701 155 155 155
-0.283227 -2.001161 -5.148069 155 155 155
-0.273623 -1.998841 -5.142100 155 155 155
-0.258797 -1.956867 -5.034122 155 155 155
-0.249716 -1.956867 -5.034122 155 155 155
-0.238739 -1.941441 -4.994439 155 155 155
-0.231818 -1.959091 -5.039843 155 155 155
-0.220721 -1.941441 -4.994439 155 155 155
-0.212911 -1.952435 -5.022720 155 155 155
-0.203851 -1.952435 -5.022720 155 155 155
-0.345382 -3.461847 -8.905746 155 155 155
-0.329317 -3.461847 -8.905746 155 155 155
-0.309217 -3.417245 -8.791004 155 155 155
-0.293360 -3.417245 -8.791004 155 155 155
0.006579 -2.835526 -7.294509 155 155 155
0.019688 -2.828548 -7.276557 155 155 155
0.031721 -2.734338 -7.034197 155 155 155
0.044304 -2.727848 -7.017502 155 155 155
0.056962 -2.727848 -7.017502 155 155 155
0.090164 -3.532787 -9.088241 155 155 155
0.106557 -3.532787 -9.088241 155 155 155
0.119048 -3.420635 -8.799726 155 155 155
0.134921 -3.420635 -8.799726 155 155 155
0.276867 -6.280510 -16.156872 155 155 155
0.306011 -6.280510 -16.156872 155 155 155
0.325664 -6.102655 -15.699333 155 155 155
0.353982 -6.102655 -15.699333 155 155 155
0.176829 -2.628049 -6.760765 155 155 155
0.187029 -2.600302 -6.689384 155 155 155
0.199095 -2.600302 -6.689384 155 155 155
0.208333 -2.565476 -6.599794 155 155 155
0.183509 -2.137632 -5.499146 155 155 155
0.193428 -2.137632 -5.499146 155 155 155
0.500000 -5.256098 -13.521529 155 155 155
0.524390 -5.256098 -13.521529 155 155 155
0.548781 -5.256098 -13.521529 155 155 155
0.261111 -2.394444 -6.159808 155 155 155
0.283333 -2.394444 -6.159808 155 155 155
0.304598 -2.477011 -6.372215 155 155 155
0.653789 -5.123328 -13.179975 155 155 155
0.677563 -5.123328 -13.179975 155 155 155
0.694118 -5.070588 -13.044298 155 155 155
0.708273 -5.004354 -12.873909 155 155 155
0.713881 -4.883852 -12.563913 155 155 155
0.735502 -4.876945 -12.546143 155 155 155
0.746518 -4.802228 -12.353931 155 155 155
0.764543 -4.775623 -12.285489 155 155 155
0.784530 -4.762431 -12.251552 155 155 155
0.777630 -4.591212 -11.811083 155 155 155
0.796813 -4.579017 -11.779712 155 155 155
0.816976 -4.572944 -11.764089 155 155 155
0.829396 -4.524934 -11.640581 155 155 155
0.840467 -4.472114 -11.504699 155 155 155
0.844784 -4.386768 -11.285144 155 155 155
0.865140 -4.386768 -11.285144 155 155 155
0.882129 -4.370089 -11.242234 155 155 155
0.898990 -4.353535 -11.199651 155 155 155
0.906600 -4.293898 -11.046230 155 155 155
0.911765 -4.225490 -10.870249 155 155 155
0.925700 -4.199757 -10.804048 155 155 155
0.932692 -4.144231 -10.661205 155 155 155
0.938389 -4.085308 -10.509624 155 155 155
0.949471 -4.051704 -10.423177 155 155 155
0.967136 -4.046948 -10.410942 155 155 155
0.972222 -3.990741 -10.266346 155 155 155
0.977169 -3.936073 -10.125711 155 155 155
0.989784 -3.913734 -10.068244 155 155 155
1.002257 -3.891648 -10.011426 155 155 155
1.013453 -3.865471 -9.944084 155 155 155
1.023359 -3.835373 -9.866655 155 155 155
1.037694 -3.822616 -9.833839 155 155 155
1.043860 -3.780702 -9.726012 155 155 155
1.056769 -3.764192 -9.683540 155 155 155
1.060345 -3.715517 -9.558322 155 155 155
1.077586 -3.715517 -9.558322 155 155 155
1.088960 -3.695606 -9.507098 155 155 155
1.097872 -3.668085 -9.436301 155 155 155
1.110170 -3.652542 -9.396317 155 155 155
1.111808 -3.602926 -9.268676 155 155 155
1.125000 -3.591667 -9.239712 155 155 155
1.128733 -3.550978 -9.135039 155 155 155
1.137014 -3.525562 -9.069655 155 155 155
1.148676 -3.511202 -9.032712 155 155 155
1.153226 -3.475806 -8.941656 155 155 155
1.151936 -3.424032 -8.808464 155 155 155
1.165510 -3.417245 -8.791004 155 155 155
1.170923 -3.387033 -8.713284 155 155 155
1.186641 -3.387033 -8.713284 155 155 155
1.224000 -3.448000 -8.870123 155 155 155
1.241241 -3.451452 -8.879002 155 155 155
1.256000 -3.448000 -8.870123 155 155 155
1.248283 -3.383709 -8.704733 155 155 155
1.252918 -3.354086 -8.628525 155 155 155
1.250240 -3.305849 -8.504433 155 155 155
1.245283 -3.252830 -8.368041 155 155 155
1.248598 -3.222430 -8.289835 155 155 155
1.242647 -3.169118 -8.152687 155 155 155
1.251601 -3.154620 -8.115392 155 155 155
1.261623 -3.143118 -8.085800 155 155 155
1.268116 -3.123188 -8.034532 155 155 155
1.268817 -3.089606 -7.948139 155 155 155
1.282005 -3.086840 -7.941023 155 155 155
1.292857 -3.078571 -7.919753 155 155 155
1.303651 -3.070347 -7.898596 155 155 155
1.305115 -3.040564 -7.821978 155 155 155
1.312281 -3.024561 -7.780810 155 155 155
1.311362 -2.990460 -7.693081 155 155 155
1.319516 -2.977547 -7.659864 155 155 155
1.333333 -2.977547 -7.659864 155 155 155
1.345988 -2.974978 -7.653255 155 155 155
1.345858 -2.944492 -7.574828 155 155 155
1.354894 -2.934468 -7.549041 155 155 155
1.358108 -2.912162 -7.491658 155 155 155
1.364706 -2.897479 -7.453885 155 155 155
1.363258 -2.866168 -7.373336 155 155 155
1.366337 -2.844884 -7.318583 155 155 155
1.370492 -2.826230 -7.270593 155 155 155
1.370130 -2.798701 -7.199775 155 155 155
1.365385 -2.762820 -7.107471 155 155 155
1.371611 -2.749601 -7.073463 155 155 155
1.374505 -2.730008 -7.023058 155 155 155
1.375196 -2.706436 -6.962420 155 155 155
1.365251 -2.662548 -6.849516 155 155 155
1.376543 -2.660494 -6.844231 155 155 155
1.385681 -2.654350 -6.828424 155 155 155
1.388379 -2.636086 -6.781440 155 155 155
1.395278 -2.626047 -6.755615 155 155 155
1.407464 -2.626047 -6.755615 155 155 155
1.419650 -2.626047 -6.755615 155 155 155
1.394659 -2.557863 -6.580210 155 155 155
1.394118 -2.535294 -6.522149 155 155 155
1.369627 -2.469914 -6.353956 155 155 155
1.381089 -2.469914 -6.353956 155 155 155
1.411765 -2.503994 -6.441629 155 155 155
1.423384 -2.503994 -6.441629 155 155 155
1.435004 -2.503994 -6.441629 155 155 155
1.473373 -2.550296 -6.560742 155 155 155
1.485207 -2.550296 -6.560742 155 155 155
1.483871 -2.527859 -6.503023 155 155 155
1.481481 -2.503994 -6.441629 155 155 155
1.489855 -2.498551 -6.427625 155 155 155
1.490647 -2.480576 -6.381383 155 155 155
1.500000 -2.477011 -6.372215 155 155 155
1.493258 -2.447126 -6.295332 155 155 155
1.490858 -2.424754 -6.237780 155 155 155
1.500000 -2.421348 -6.229019 155 155 155
1.500697 -2.404463 -6.185581 155 155 155
1.504511 -2.392783 -6.155533 155 155 155
1.515614 -2.392783 -6.155533 155 155 155
1.532033 -2.401114 -6.176966 155 155 155
1.543175 -2.401114 -6.176966 155 155 155
1.544637 -2.386159 -6.138494 155 155 155
1.546080 -2.371389 -6.100497 155 155 155
1.553878 -2.366507 -6.087936 155 155 155
1.552076 -2.347175 -6.038205 155 155 155
1.559783 -2.342391 -6.025899 155 155 155
1.553763 -2.317204 -5.961104 155 155 155
1.554072 -2.301736 -5.921310 155 155 155
1.558511 -2.292553 -5.897688 155 155 155
1.569149 -2.292553 -5.897688 155 155 155
1.578737 -2.291030 -5.893769 155 155 155
1.573684 -2.268421 -5.835607 155 155 155
1.584211 -2.268421 -5.835607 155 155 155
1.589508 -2.260984 -5.816474 155 155 155
1.587508 -2.243331 -5.771062 155 155 155
1.580438 -2.218790 -5.707930 155 155 155
1.590734 -2.218790 -5.707930 155 155 155
1.592830 -2.207426 -5.678696 155 155 155
1.597958 -2.200383 -5.660576 155 155 155
1.589905 -2.175394 -5.596292 155 155 155
1.600000 -2.175394 -5.596292 155 155 155
1.595000 -2.155000 -5.543827 155 155 155
1.598009 -2.145613 -5.519678 155 155 155
1.600991 -2.136307 -5.495739 155 155 155
1.608911 -2.133663 -5.488937 155 155 155
1.618812 -2.133663 -5.488937 155 155 155
1.626700 -2.131026 -5.482152 155 155 155
1.636588 -2.131026 -5.482152 155 155 155
1.633354 -2.114040 -5.438457 155 155 155
1.627201 -2.093503 -5.385624 155 155 155
1.635922 -2.092233 -5.382356 155 155 155
1.632751 -2.075858 -5.340230 155 155 155
1.637455 -2.069628 -5.324203 155 155 155
1.644098 -2.065908 -5.314633 155 155 155
1.642857 -2.052381 -5.279835 155 155 155
1.651398 -2.051160 -5.276694 155 155 155
1.646226 -2.033019 -5.230025 155 155 155
1.654685 -2.031821 -5.226943 155 155 155
1.647608 -2.011669 -5.175101 155 155 155
1.645423 -1.997682 -5.139121 155 155 155
1.654693 -1.997682 -5.139121 155 155 155
1.667828 -2.002323 -5.151059 155 155 155
1.677120 -2.002323 -5.151059 155 155 155
1.676674 -1.990762 -5.121318 155 155 155
1.682997 -1.987320 -5.112463 155 155 155
1.682521 -1.975931 -5.083165 155 155 155
1.677273 -1.959091 -5.039843 155 155 155
1.684449 -1.956867 -5.034122 155 155 155
1.680180 -1.941441 -4.994439 155 155 155
1.689189 -1.941441 -4.994439 155 155 155
1.698198 -1.941441 -4.994439 155 155 155
1.707207 -1.941441 -4.994439 155 155 155
1.716216 -1.941441 -4.994439 155 155 155
1.725225 -1.941441 -4.994439 155 155 155
1.734234 -1.941441 -4.994439 155 155 155
1.743243 -1.941441 -4.994439 155 155 155
1.752252 -1.941441 -4.994439 155 155 155
1.761261 -1.941441 -4.994439 155 155 155
1.770270 -1.941441 -4.994439 155 155 155
1.779279 -1.941441 -4.994439 155 155 155
1.788288 -1.941441 -4.994439 155 155 155
2.002312 -1.993064 -5.127239 155 155 155
1.995413 -1.977064 -5.086080 155 155 155
1.985236 -1.957978 -5.036981 155 155 155
1.994321 -1.957978 -5.036981 155 155 155
2.097503 -2.049941 -5.273557 155 155 155
2.129808 -2.072115 -5.330603 155 155 155
4.119074 -3.801543 -9.779629 155 155 155
4.065005 -3.735645 -9.610101 155 155 155
4.008511 -3.668085 -9.436301 155 155 155
3.966457 -3.614256 -9.297823 155 155 155
3.909465 -3.547325 -9.125641 155 155 155
3.925926 -3.547325 -9.125641 155 155 155
3.898271 -3.507630 -9.023523 155 155 155
3.131001 -2.805533 -7.217350 155 155 155
3.128745 -2.791903 -7.182286 155 155 155
3.136621 -2.787389 -7.170673 155 155 155
3.043750 -2.693750 -6.929784 155 155 155
3.046729 -2.685358 -6.908195 155 155 155
3.030864 -2.660494 -6.844231 155 155 155
3.043210 -2.660494 -6.844231 155 155 155
3.173077 -2.762820 -7.107471 155 155 155
3.185897 -2.762820 -7.107471 155 155 155
3.158228 -2.727848 -7.017502 155 155 155
3.131250 -2.693750 -6.929784 155 155 155
3.107336 -2.662548 -6.849516 155 155 155
3.072243 -2.622053 -6.745341 155 155 155
3.084411 -2.622053 -6.745341 155 155 155
3.091876 -2.618071 -6.735097 155 155 155
3.041667 -2.565476 -6.599794 155 155 155
3.022091 -2.539028 -6.531755 155 155 155
3.033873 -2.539028 -6.531755 155 155 155
2.917647 -2.386159 -6.138494 155 155 155
2.875000 -2.342391 -6.025899 155 155 155
2.883910 -2.340801 -6.021808 155 155 155
2.863667 -2.315648 -5.957101 155 155 155
2.874412 -2.315648 -5.957101 155 155 155
2.668269 -2.072115 -5.330603 155 155 155
2.652381 -2.052381 -5.279835 155 155 155
2.636792 -2.033019 -5.230025 155 155 155
2.630715 -2.021102 -5.199369 155 155 155
2.611015 -1.998841 -5.142100 155 155 155
2.606690 -1.988466 -5.115411 155 155 155
2.600917 -1.977064 -5.086080 155 155 155
2.586364 -1.959091 -5.039843 155 155 155
2.595454 -1.959091 -5.039843 155 155 155
2.781554 -2.092233 -5.382356 155 155 155
2.791262 -2.092233 -5.382356 155 155 155
2.599099 -1.941441 -4.994439 155 155 155
2.608108 -1.941441 -4.994439 155 155 155
2.711785 -2.011669 -5.175101 155 155 155
2.721120 -2.011669 -5.175101 155 155 155
2.705202 -1.993064 -5.127239 155 155 155
2.692661 -1.977064 -5.086080 155 155 155
2.694111 -1.971412 -5.071540 155 155 155
2.683314 -1.956867 -5.034122 155 155 155
2.671171 -1.941441 -4.994439 155 155 155
2.680180 -1.941441 -4.994439 155 155 155
2.689189 -1.941441 -4.994439 155 155 155
-1.878378 -1.950450 -4.994439 155 155 155
-1.869369 -1.950450 -4.994439 155 155 155
-3.956886 -4.148503 -10.622902 155 155 155
-3.937725 -4.148503 -10.622902 155 155 155
-3.840376 -4.065728 -10.410942 155 155 155
-2.055556 -2.186869 -5.599825 155 155 155
-2.022472 -2.162297 -5.536906 155 155 155
-1.993816 -2.142239 -5.485543 155 155 155
-1.983921 -2.142239 -5.485543 155 155 155
-2.392006 -2.662567 -6.817927 155 155 155
-2.376055 -2.658480 -6.807462 155 155 155
-2.363776 -2.658480 -6.807462 155 155 155
-2.160753 -2.508327 -6.422971 155 155 155
-2.149167 -2.508327 -6.422971 155 155 155
-2.119167 -2.486719 -6.367640 155 155 155
-2.101646 -2.479599 -6.349408 155 155 155
-2.073864 -2.460227 -6.299803 155 155 155
-1.626126 -1.950450 -4.994439 155 155 155
-1.617117 -1.950450 -4.994439 155 155 155
-1.637615 -1.986238 -5.086080 155 155 155
-1.628440 -1.986238 -5.086080 155 155 155
-1.619266 -1.986238 -5.086080 155 155 155
-3.510000 -4.330000 -11.087654 155 155 155
-3.490000 -4.330000 -11.087654 155 155 155
-1.800259 -2.246433 -5.752349 155 155 155
-1.778350 -2.231959 -5.715285 155 155 155
-1.768041 -2.231959 -5.715285 155 155 155
-1.722222 -2.186869 -5.599825 155 155 155
-1.712121 -2.186869 -5.599825 155 155 155
-1.559283 -2.003470 -5.130204 155 155 155
-1.535817 -1.985100 -5.083165 155 155 155
-1.526648 -1.985100 -5.083165 155 155 155
-3.544445 -4.811111 -12.319615 155 155 155
-3.522222 -4.811111 -12.319615 155 155 155
-3.500000 -4.811111 -12.319615 155 155 155
-3.477778 -4.811111 -12.319615 155 155 155
-1.784792 -2.484936 -6.363072 155 155 155
-1.773314 -2.484936 -6.363072 155 155 155
