ply
        format ascii 1.0
        element vertex 55943
        property float x
        property float y
        property float z
        property uchar red
        property uchar green
        property uchar blue
        end_header
-10.357615 8.344371 -29.371269 146 150 185
-10.203279 8.262295 -29.082371 146 149 182
-9.828571 8.000000 -28.159121 147 147 183
-8.850574 7.241379 -25.488859 152 145 186
-8.655367 7.118644 -25.056845 155 144 186
-8.282609 6.847826 -24.103596 150 135 176
-7.695432 6.395939 -22.513002 150 129 170
-7.465346 6.237624 -21.955750 149 122 163
-7.317073 6.146341 -21.634447 138 107 148
-7.173077 6.057693 -21.322411 131 96 136
-7.117506 6.043166 -21.271278 131 93 132
-6.618834 5.650224 -19.888168 126 86 123
-6.368763 5.466377 -19.241047 122 82 116
-6.160337 5.316456 -18.713339 111 70 104
-5.318436 4.692738 -16.517920 106 53 81
-5.191956 4.606947 -16.215946 108 52 79
-4.998230 4.460177 -15.699333 105 46 74
-4.849741 4.352332 -15.319729 107 44 73
-0.994624 1.693548 -5.961104 120 62 58
-0.983871 1.693548 -5.961104 94 45 41
-0.973118 1.693548 -5.961104 86 48 47
-0.961719 1.692411 -5.957101 74 56 56
-0.949698 1.690141 -5.949110 57 67 68
-1.109350 1.996830 -7.028624 64 94 94
-1.119741 2.038835 -7.176475 61 102 106
-1.058637 1.996830 -7.028624 81 114 129
-1.040189 1.985816 -6.989853 90 115 135
-1.021143 1.973375 -6.946064 112 124 148
-1.006250 1.968750 -6.929784 128 125 154
-0.992974 1.967213 -6.924374 131 114 150
-0.968389 1.942945 -6.838954 125 94 138
-0.949464 1.929556 -6.791825 110 67 112
-0.936496 1.928080 -6.786628 101 43 81
-0.544436 2.017614 -7.101780 130 77 71
-0.505050 2.121212 -7.466434 101 38 31
-0.491169 2.119428 -7.460154 103 40 35
-0.477712 2.119428 -7.460154 115 52 47
-0.464256 2.119428 -7.460154 113 49 47
-0.451939 2.124789 -7.479024 109 48 47
-0.439189 2.128378 -7.491658 99 38 37
-0.425676 2.128378 -7.491658 98 39 35
-0.412162 2.128378 -7.491658 105 46 38
-0.398649 2.128378 -7.491658 112 54 42
3.262940 5.217391 -18.364643 89 57 60
3.275720 5.185185 -18.251282 100 84 85
3.308642 5.185185 -18.251282 102 103 105
2.946519 2.542886 -8.950679 100 46 34
2.853256 2.448980 -8.620139 102 46 33
2.827586 2.413793 -8.496286 103 47 32
2.842912 2.413793 -8.496286 108 52 35
2.833808 2.393162 -8.423669 116 63 45
2.840909 2.386364 -8.399737 121 68 50
2.850662 2.381853 -8.383860 119 68 49
2.815228 2.339833 -8.235954 117 66 49
2.714159 2.243989 -7.898596 117 66 47
2.692443 2.214411 -7.794484 114 63 44
2.682927 2.195122 -7.726588 114 63 42
2.678201 2.179931 -7.673117 115 65 42
2.671245 2.163090 -7.613840 119 71 49
2.662128 2.144681 -7.549041 119 78 60
2.662151 2.133785 -7.510688 114 76 63
2.673435 2.131980 -7.504334 89 48 44
2.686971 2.131980 -7.504334 70 35 39
2.756477 2.176166 -7.659864 59 41 55
2.779896 2.183709 -7.686415 104 100 125
2.798611 2.187500 -7.699759 93 103 138
2.812500 2.187500 -7.699759 90 110 147
2.833769 2.193212 -7.719863 93 117 153
2.862642 2.204724 -7.760387 99 124 155
2.876640 2.204724 -7.760387 107 128 157
2.885590 2.200873 -7.746832 115 135 162
2.894507 2.197036 -7.733325 118 134 160
2.903394 2.193212 -7.719863 122 134 160
2.907199 2.185603 -7.693081 126 133 152
2.883562 2.157534 -7.594284 126 128 141
2.865368 2.133785 -7.510688 132 127 131
2.866779 2.124789 -7.479024 145 134 130
2.877843 2.122999 -7.472723 147 129 117
2.891323 2.122999 -7.472723 133 110 94
2.904802 2.122999 -7.472723 110 82 61
2.923207 2.126582 -7.485336 83 48 29
2.939189 2.128378 -7.491658 102 63 46
3.000858 2.163090 -7.613840 104 60 47
3.282224 2.122999 -7.472723 140 83 98
3.295703 2.122999 -7.472723 135 79 92
3.284281 2.107023 -7.416491 122 66 79
3.294904 2.105263 -7.410295 111 55 66
3.300000 2.100000 -7.391769 116 60 71
3.313333 2.100000 -7.391769 119 63 72
3.329441 2.101752 -7.397934 119 63 72
3.348371 2.105263 -7.410295 114 59 65
3.395781 2.126582 -7.485336 111 56 62
3.444160 2.148338 -7.561912 117 62 67
3.454855 2.146508 -7.555471 123 68 73
3.471441 2.148338 -7.561912 124 68 71
3.473237 2.141037 -7.536213 126 67 71
3.466216 2.128378 -7.491658 126 65 70
3.276353 1.794872 -6.317751 115 38 28
3.283072 1.792319 -6.308764 113 36 26
3.299145 1.794872 -6.317751 118 42 29
3.370529 1.802575 -6.344866 128 48 47
3.360341 1.791045 -6.304281 131 51 52
3.378917 1.794872 -6.317751 131 51 52
3.390313 1.794872 -6.317751 129 49 52
3.384833 1.785967 -6.286409 125 46 49
3.372273 1.773399 -6.242170 124 45 48
3.383533 1.773399 -6.242170 125 47 47
3.421277 1.787234 -6.290867 126 48 46
3.437500 1.789773 -6.299803 128 49 45
3.446416 1.788502 -6.295332 131 47 45
3.455319 1.787234 -6.290867 131 48 44
3.466667 1.787234 -6.290867 129 48 44
3.487909 1.792319 -6.308764 130 51 46
3.521832 1.803865 -6.349408 128 53 47
3.535817 1.805158 -6.353956 126 53 47
3.544739 1.803865 -6.349408 122 51 45
3.540984 1.796151 -6.322255 119 50 45
3.567645 1.803865 -6.349408 117 49 46
-3.035250 2.322820 -8.228314 151 154 187
-3.020408 2.322820 -8.228314 152 155 188
-12.656250 9.781250 -34.648918 153 153 187
-12.593750 9.781250 -34.648918 152 151 185
-12.531250 9.781250 -34.648918 147 143 180
-12.468750 9.781250 -34.648918 152 146 184
-11.066202 8.724739 -30.906353 150 142 181
-11.010453 8.724739 -30.906353 153 141 179
-10.841379 8.634482 -30.586632 158 142 179
-10.675768 8.546075 -30.273457 156 135 174
-10.304636 8.291390 -29.371269 146 124 162
-9.828571 7.949206 -28.159121 134 108 147
-9.194030 7.474627 -26.477980 133 100 143
-8.804598 7.195402 -25.488859 127 90 134
-8.561798 7.033708 -24.916077 117 76 120
-8.216803 6.785908 -24.038275 117 70 112
-7.654822 6.355330 -22.513002 118 68 106
-7.425743 6.198020 -21.955750 114 58 97
-7.173077 6.019231 -21.322411 112 52 88
-6.870370 5.796296 -20.532692 113 52 86
-6.618834 5.614350 -19.888168 107 43 77
-6.382609 5.443478 -19.282877 104 41 70
-6.347826 5.443478 -19.282877 102 37 67
-5.388679 4.724528 -16.736082 118 46 68
-5.288640 4.662942 -16.517920 118 45 65
-5.162706 4.577696 -16.215946 122 50 70
-1.001339 1.676037 -5.937164 113 50 43
-0.988644 1.672679 -5.925266 119 62 53
-0.981891 1.679410 -5.949110 97 50 42
-0.973118 1.682796 -5.961104 83 48 42
-0.949698 1.679410 -5.949110 55 67 65
-1.140994 2.040750 -7.229114 67 99 98
-1.127954 2.040750 -7.229114 71 112 116
-1.114914 2.040750 -7.229114 65 110 116
-1.074722 1.990461 -7.050972 72 112 122
-1.056126 1.979447 -7.011955 80 114 126
-1.037736 1.968553 -6.973367 91 114 130
-1.021944 1.962382 -6.951507 113 124 144
-0.966898 1.927637 -6.828424 158 125 168
-0.948738 1.915838 -6.786628 130 85 126
-0.936496 1.915838 -6.786628 96 39 74
-0.468647 2.066007 -7.318583 101 40 35
-0.462312 2.097152 -7.428914 107 46 43
-0.450799 2.105971 -7.460154 106 45 44
-0.438449 2.111299 -7.479024 98 37 36
-0.425676 2.114865 -7.491658 98 37 36
-0.412162 2.114865 -7.491658 105 45 37
-0.398649 2.114865 -7.491658 111 51 40
3.216326 5.110204 -18.102291 91 59 64
3.242362 5.099796 -18.065424 99 84 89
2.946519 2.526741 -8.950679 101 47 35
2.912699 2.484127 -8.799726 105 49 36
2.868805 2.433430 -8.620139 105 49 34
2.842912 2.398468 -8.496286 105 52 34
2.825758 2.371212 -8.399737 109 57 36
2.822201 2.355597 -8.344424 113 61 40
2.813433 2.335821 -8.274368 113 62 41
2.748867 2.270172 -8.041816 113 62 41
2.760870 2.268116 -8.034532 111 63 40
2.728406 2.229742 -7.898596 111 61 38
2.697023 2.192645 -7.767183 112 62 37
2.687500 2.173611 -7.699759 115 65 38
2.678141 2.154905 -7.633497 117 71 47
2.668942 2.136519 -7.568364 118 80 59
2.662151 2.120237 -7.510688 113 75 62
2.673435 2.118443 -7.504334 87 46 42
2.686971 2.118443 -7.504334 69 34 40
2.756477 2.162349 -7.659864 59 41 55
2.779896 2.169844 -7.686415 105 101 126
2.793761 2.169844 -7.686415 95 105 140
2.812500 2.173611 -7.699759 92 112 149
2.826389 2.173611 -7.699759 94 118 154
2.850174 2.181185 -7.726588 99 126 156
2.864111 2.181185 -7.726588 107 131 159
2.878049 2.181185 -7.726588 117 138 165
2.889469 2.179286 -7.719863 122 139 167
2.903394 2.179286 -7.719863 129 141 167
2.914783 2.177391 -7.713151 134 141 160
2.893471 2.151203 -7.620380 131 131 143
2.870229 2.123834 -7.523429 132 126 128
2.871622 2.114865 -7.491658 145 132 126
2.880270 2.111299 -7.479024 145 125 114
2.891323 2.109520 -7.472723 132 106 89
2.902357 2.107744 -7.466434 106 77 59
2.913373 2.105971 -7.460154 80 47 28
2.929293 2.107744 -7.466434 97 60 44
3.297252 2.084929 -7.385614 117 64 74
3.310575 2.084929 -7.385614 119 66 74
3.323897 2.084929 -7.385614 121 65 74
3.337219 2.084929 -7.385614 117 62 68
3.370184 2.097152 -7.428914 113 58 64
3.423729 2.122034 -7.517054 116 61 66
3.448980 2.129252 -7.542622 121 66 71
3.471441 2.134697 -7.561912 122 66 69
3.476191 2.129252 -7.542622 123 64 68
3.278409 1.778409 -6.299803 118 40 30
3.289773 1.778409 -6.299803 121 43 33
3.301136 1.778409 -6.299803 123 45 35
3.348169 1.797559 -6.367640 124 45 38
3.357955 1.778409 -6.299803 135 53 55
3.371713 1.779673 -6.304281 134 54 57
3.398582 1.775887 -6.290867 127 47 50
3.409929 1.775887 -6.290867 131 51 52
3.421277 1.775887 -6.290867 134 54 55
3.432624 1.775887 -6.290867 136 56 55
3.441531 1.774628 -6.286409 135 54 51
3.445544 1.770863 -6.273071 133 52 49
3.442254 1.763380 -6.246565 129 50 46
3.443820 1.758427 -6.229019 127 49 45
3.499289 1.780939 -6.308764 124 49 44
3.540890 1.796270 -6.363072 119 45 42
3.565155 1.802736 -6.385978 112 41 39
3.561290 1.794982 -6.358511 108 38 38
3.590778 1.804035 -6.390579 104 36 37
-3.021237 2.297322 -8.190326 165 150 189
-2.998158 2.290976 -8.167701 159 144 183
-2.991690 2.297322 -8.190326 153 137 176
-2.968693 2.290976 -8.167701 151 133 171
-10.841379 8.579310 -30.586632 131 93 132
-10.731034 8.579310 -30.586632 113 67 106
-10.251656 8.238411 -29.371269 104 56 94
-9.777778 7.898413 -28.159121 102 50 89
-9.146269 7.426866 -26.477980 98 42 81
-9.044511 7.382789 -26.320841 92 32 70
-7.537688 6.251256 -22.286741 108 37 69
-7.278049 6.068293 -21.634447 116 41 71
-7.134615 5.980769 -21.322411 122 46 74
-6.833333 5.759259 -20.532692 118 42 68
-6.796296 5.759259 -20.532692 120 45 68
-5.388679 4.694340 -16.736082 130 49 64
-5.328330 4.667917 -16.641882 123 42 57
-1.156691 1.673167 -5.965113 102 33 26
-1.036458 1.619792 -5.774820 118 53 57
-0.989967 1.664214 -5.933193 112 55 46
-0.981891 1.668679 -5.949110 95 48 40
-1.147541 2.039344 -7.270593 64 95 97
-1.123377 2.019480 -7.199775 71 112 116
-1.104116 2.008071 -7.159099 69 114 120
-1.074722 1.977742 -7.050972 71 111 121
-1.056126 1.966798 -7.011955 85 117 128
-1.036107 1.952904 -6.962420 101 120 134
-1.021944 1.949843 -6.951507 112 119 137
-1.002335 1.936187 -6.902820 125 115 142
-0.981481 1.919753 -6.844231 156 132 166
-0.961715 1.905054 -6.791825 172 138 175
-0.948012 1.902141 -6.781440 145 99 135
-0.934351 1.899237 -6.771086 105 46 76
-0.467875 2.049423 -7.306526 97 36 31
-0.461153 2.078530 -7.410295 103 44 40
-0.450799 2.092515 -7.460154 102 43 39
-0.438079 2.096040 -7.472723 100 39 38
-0.425676 2.101351 -7.491658 98 37 34
-0.412511 2.103128 -7.497991 102 42 34
-0.398649 2.101351 -7.491658 105 45 34
2.893939 4.712121 -16.799475 114 59 62
2.946565 4.748092 -16.927715 109 58 63
3.046875 4.859375 -17.324459 94 51 58
3.139442 4.956175 -17.669567 86 55 61
3.152475 4.926733 -17.564600 96 83 90
3.255061 5.036437 -17.955715 94 99 105
3.003040 3.781155 -13.480431 77 32 39
3.027356 3.781155 -13.480431 72 30 34
3.051672 3.781155 -13.480431 67 22 29
2.946519 2.510595 -8.950679 103 49 39
2.959677 2.508065 -8.941656 106 49 38
2.868805 2.417881 -8.620139 106 50 35
2.818614 2.362773 -8.423669 105 49 32
2.817753 2.349386 -8.375942 103 51 29
2.798507 2.320895 -8.274368 104 54 31
2.782288 2.295203 -8.182771 107 57 32
2.746377 2.253623 -8.034532 107 60 34
2.755877 2.249548 -8.020002 107 60 32
2.730838 2.217469 -7.905635 109 62 32
2.713656 2.192070 -7.815086 113 66 36
2.673575 2.148532 -7.659864 119 73 40
2.673539 2.137457 -7.620380 117 76 46
2.668942 2.122867 -7.568364 115 79 57
2.666667 2.110263 -7.523429 110 74 60
2.673435 2.104907 -7.504334 84 45 40
2.686971 2.104907 -7.504334 71 36 42
2.756477 2.148532 -7.659864 62 44 58
2.779896 2.155979 -7.686415 110 106 131
2.793761 2.155979 -7.686415 100 110 146
2.805195 2.154113 -7.679760 95 114 154
2.819048 2.154113 -7.679760 93 119 154
2.832901 2.154113 -7.679760 96 125 155
2.841832 2.150389 -7.666485 104 130 157
2.833619 2.133791 -7.607310 115 136 163
2.837607 2.126496 -7.581302 124 141 169
2.851282 2.126496 -7.581302 132 146 172
2.879725 2.137457 -7.620380 138 145 164
2.856658 2.110263 -7.523429 133 135 148
2.862944 2.104907 -7.504334 135 129 133
2.871622 2.101351 -7.491658 145 134 130
2.882700 2.099578 -7.485336 144 126 116
2.888889 2.094276 -7.466434 125 102 88
2.892617 2.087248 -7.441379 105 78 61
2.901173 2.083752 -7.428914 84 52 37
2.926829 2.092515 -7.460154 95 57 44
3.310575 2.071607 -7.385614 122 66 77
3.323897 2.071607 -7.385614 122 66 75
3.328904 2.066445 -7.367212 120 64 73
3.398649 2.101351 -7.491658 117 62 68
3.278409 1.767045 -6.299803 123 46 36
3.287438 1.765791 -6.295332 126 49 39
3.346072 1.760793 -6.277511 140 58 60
3.438346 1.773343 -6.322255 123 43 46
3.432624 1.764539 -6.290867 121 43 43
3.422128 1.753347 -6.250968 113 35 33
3.430986 1.752113 -6.246565 107 32 29
3.574222 1.801593 -6.422971 96 26 24
3.572872 1.795094 -6.399800 93 25 24
3.584416 1.795094 -6.399800 92 24 25
-2.990045 2.237104 -8.027261 131 100 142
-3.013749 2.265811 -8.130269 126 95 137
-3.004591 2.269973 -8.145200 131 96 138
-2.995400 2.274149 -8.160187 125 90 132
-2.980681 2.274149 -8.160187 121 84 125
-2.968693 2.276243 -8.167701 121 83 122
-2.970370 2.288889 -8.213077 116 76 113
-2.824798 2.221024 -7.969563 113 53 91
-9.515528 7.677019 -27.546967 117 48 76
-7.239024 6.029268 -21.634447 132 51 66
-1.244941 1.725052 -6.189898 101 36 30
-1.180952 1.681633 -6.034097 103 36 28
-1.156691 1.662408 -5.965113 99 32 24
-1.046875 1.609375 -5.774820 112 48 49
-1.036458 1.609375 -5.774820 119 54 58
-1.028050 1.612525 -5.786121 119 53 55
-0.979264 1.653512 -5.933193 100 55 50
-1.160862 2.049751 -7.354994 66 97 100
-1.123377 2.006494 -7.199775 69 108 115
-1.104116 1.995157 -7.159099 70 113 122
-1.079010 1.972865 -7.079109 74 112 121
-1.056126 1.954150 -7.011955 92 120 131
-1.036107 1.940345 -6.962420 105 122 132
-1.019547 1.932760 -6.935202 115 117 132
-1.000000 1.919255 -6.886742 123 107 133
-0.979969 1.904468 -6.833685 140 111 141
-0.960245 1.889908 -6.781440 150 111 142
-0.944402 1.882711 -6.755615 140 91 120
-0.932216 1.882711 -6.755615 118 58 83
-0.943013 1.929742 -6.924374 107 38 57
-0.465574 2.026230 -7.270593 103 44 38
-0.455446 2.039604 -7.318583 107 48 42
-0.450799 2.079058 -7.460154 105 46 42
-0.437342 2.079058 -7.460154 103 42 39
-0.425316 2.086076 -7.485336 99 38 35
-0.411814 2.086076 -7.485336 102 42 34
2.885496 4.717557 -16.927715 105 50 45
2.893939 4.681818 -16.799475 111 55 56
2.946565 4.717557 -16.927715 103 53 56
2.988506 4.735632 -16.992573 87 45 49
3.102362 4.866142 -17.460873 79 50 55
3.133858 4.866142 -17.460873 93 84 89
3.203187 4.924303 -17.669567 93 102 107
3.036585 3.768293 -13.521529 75 30 35
3.056317 3.762557 -13.500948 71 24 34
3.080670 3.762557 -13.500948 78 31 39
2.988741 2.530195 -9.078938 107 50 41
2.818614 2.347578 -8.423669 105 50 30
2.807150 2.325494 -8.344424 104 52 30
2.790698 2.299535 -8.251277 104 54 29
2.769513 2.269973 -8.145200 106 56 29
2.741410 2.235081 -8.020002 106 59 29
2.721429 2.207143 -7.919753 107 62 29
2.701940 2.179894 -7.821978 112 68 33
2.687609 2.157068 -7.740072 117 73 36
2.673575 2.134715 -7.659864 121 78 43
2.678141 2.127367 -7.633497 116 77 44
2.678082 2.116438 -7.594284 114 80 55
2.671198 2.100255 -7.536213 108 75 58
2.675699 2.093141 -7.510688 83 44 39
2.686971 2.091371 -7.504334 72 37 43
2.700508 2.091371 -7.504334 63 42 59
2.714044 2.091371 -7.504334 111 105 131
2.727580 2.091371 -7.504334 99 109 145
2.741117 2.091371 -7.504334 90 109 149
2.750000 2.087838 -7.491658 86 112 147
2.775233 2.096692 -7.523429 88 117 149
2.788804 2.096692 -7.523429 98 123 153
2.797629 2.093141 -7.510688 107 131 159
2.804054 2.087838 -7.491658 120 140 167
2.817568 2.087838 -7.491658 132 146 172
2.831081 2.087838 -7.491658 136 147 167
2.844594 2.087838 -7.491658 131 134 149
2.858108 2.087838 -7.491658 129 128 134
2.869198 2.086076 -7.485336 142 133 134
2.875421 2.080808 -7.466434 139 124 119
2.886459 2.079058 -7.460154 120 100 91
2.885356 2.068619 -7.422697 99 75 63
2.889074 2.061718 -7.397934 90 60 49
2.912134 2.068619 -7.422697 101 64 55
3.296849 2.049751 -7.354994 126 68 80
3.310116 2.049751 -7.354994 125 68 77
3.296053 2.032895 -7.294509 122 65 72
3.410170 2.094915 -7.517054 120 63 70
3.278409 1.755682 -6.299803 122 48 39
3.289773 1.755682 -6.299803 127 53 44
3.343369 1.772043 -6.358511 126 51 45
3.320225 1.735955 -6.229019 131 51 52
3.441531 1.751949 -6.286409 95 25 25
3.565217 1.791304 -6.427625 91 25 26
3.579405 1.792603 -6.432286 89 25 25
3.588406 1.791304 -6.427625 90 26 26
3.600000 1.791304 -6.427625 91 27 28
-3.010989 2.249084 -8.122824 90 42 80
-2.999084 2.251146 -8.130269 99 49 87
-2.992647 2.257353 -8.152687 106 56 94
-2.980681 2.259430 -8.160187 113 63 100
-2.968693 2.261510 -8.167701 118 66 102
-2.964880 2.269871 -8.197896 107 53 87
-2.955555 2.274074 -8.213077 112 57 89
-2.924494 2.261510 -8.167701 113 54 86
-2.844285 2.210621 -7.983909 121 56 88
-2.834986 2.214608 -7.998308 117 48 79
-1.238889 1.705556 -6.159808 107 42 36
-1.226075 1.703190 -6.151264 110 43 35
-1.194274 1.674165 -6.046437 108 41 32
-1.178547 1.667346 -6.021808 106 39 31
-1.165312 1.663957 -6.009569 100 36 27
-1.128205 1.657220 -5.985238 109 51 40
-1.117409 1.657220 -5.985238 112 54 43
-1.057292 1.598958 -5.774820 109 50 46
-1.046875 1.598958 -5.774820 111 49 50
-1.036458 1.598958 -5.774820 120 54 56
-1.045786 1.629728 -5.885948 120 51 54
-1.015957 1.632979 -5.897688 99 30 23
-1.005988 1.634065 -5.901612 104 35 30
-0.989967 1.642809 -5.933193 127 72 69
-0.977303 1.639519 -5.921310 106 62 61
-0.966622 1.639519 -5.921310 98 66 67
-1.178601 2.021399 -7.300513 97 85 87
-1.165432 2.021399 -7.300513 81 92 96
-1.138211 1.996748 -7.211482 69 98 104
-1.121556 1.990276 -7.188106 70 107 116
-1.104116 1.982244 -7.159099 71 109 120
-1.087691 1.975865 -7.136060 77 111 123
-1.064542 1.956972 -7.067827 88 112 124
-1.042654 1.939968 -7.006416 99 109 121
-1.019547 1.920250 -6.935202 116 112 127
-1.000000 1.906832 -6.886742 126 104 125
-0.979969 1.892142 -6.833685 122 88 112
-0.960245 1.877676 -6.781440 120 78 100
-0.944402 1.870525 -6.755615 127 75 97
-0.932216 1.870525 -6.755615 129 66 85
-0.423886 2.065601 -7.460154 103 42 37
2.916031 4.687023 -16.927715 112 56 55
2.946565 4.687023 -16.927715 102 52 53
2.988506 4.704981 -16.992573 83 42 46
3.084149 4.806262 -17.358362 73 48 51
3.115460 4.806262 -17.358362 90 84 88
3.209581 4.902195 -17.704836 89 103 106
3.034483 4.032841 -14.565063 130 98 139
3.059908 3.772657 -13.625381 86 37 43
3.060976 3.743902 -13.521529 81 31 42
3.085366 3.743902 -13.521529 82 32 41
3.109756 3.743902 -13.521529 87 37 40
2.805293 2.321361 -8.383860 111 56 36
2.799250 2.303940 -8.320941 112 60 36
2.790698 2.284651 -8.251277 111 61 34
2.759378 2.247026 -8.115392 108 61 31
2.741410 2.220615 -8.020002 108 63 30
2.721429 2.192857 -7.919753 111 67 32
2.701940 2.165785 -7.821978 113 71 31
2.689956 2.144978 -7.746832 116 74 34
2.673575 2.120898 -7.659864 117 78 37
2.678141 2.113597 -7.633497 111 77 40
2.678082 2.102740 -7.594284 111 81 53
2.678024 2.091993 -7.555471 108 77 59
2.677966 2.081356 -7.517054 82 43 38
2.686971 2.077834 -7.504334 69 34 40
2.700508 2.077834 -7.504334 63 42 59
2.714044 2.077834 -7.504334 111 105 133
2.727580 2.077834 -7.504334 97 107 143
2.736486 2.074324 -7.491658 84 106 147
2.745363 2.070826 -7.479024 80 108 145
2.744967 2.060403 -7.441379 86 115 149
2.756077 2.058676 -7.435141 97 124 154
2.771812 2.060403 -7.441379 108 131 162
2.787574 2.062133 -7.447627 118 138 165
2.808081 2.067340 -7.466434 130 146 172
2.821549 2.067340 -7.466434 133 145 167
2.835017 2.067340 -7.466434 122 131 148
2.843698 2.063866 -7.453885 117 121 132
2.857143 2.063866 -7.453885 131 129 134
2.870588 2.063866 -7.453885 133 125 123
2.869565 2.053512 -7.416491 119 104 99
2.873333 2.046667 -7.391769 106 86 79
2.874689 2.038174 -7.361098 101 72 64
2.876033 2.029752 -7.330680 103 69 60
3.269737 2.019737 -7.294509 129 72 81
3.277504 2.016420 -7.282531 130 70 78
3.296053 2.019737 -7.294509 126 66 74
3.285714 1.754286 -6.335802 114 44 36
3.297143 1.754286 -6.335802 115 45 37
3.308571 1.754286 -6.335802 121 51 43
3.327130 1.758053 -6.349408 122 52 44
3.338583 1.758053 -6.349408 121 48 42
3.350036 1.758053 -6.349408 120 45 42
3.359084 1.756795 -6.344866 120 44 44
3.348969 1.745558 -6.304281 124 46 46
3.317895 1.723509 -6.224648 127 48 51
3.331461 1.724719 -6.229019 128 49 52
3.591008 1.781001 -6.432286 92 28 29
-3.013749 2.236480 -8.130269 105 44 75
-3.001835 2.238532 -8.137728 115 54 85
-2.989899 2.240588 -8.145200 120 61 91
-2.980681 2.244710 -8.160187 125 66 94
-2.974170 2.250922 -8.182771 124 66 91
-2.962142 2.253001 -8.190326 122 64 89
-2.952821 2.257169 -8.205480 124 66 90
-2.940741 2.259259 -8.213077 117 55 80
-2.849414 2.200180 -7.998308 114 50 74
-2.834986 2.200180 -7.998308 110 42 65
-2.833333 2.210145 -8.034532 107 35 57
-2.521665 2.073067 -7.536213 119 41 37
-2.503817 2.069551 -7.523429 115 40 35
-1.932515 1.871166 -6.802242 105 54 59
-1.250000 1.694444 -6.159808 112 49 44
-1.237171 1.692094 -6.151264 110 45 41
-1.221838 1.686247 -6.130009 107 43 34
-1.194274 1.663258 -6.046437 105 41 31
-1.178547 1.656483 -6.021808 104 40 31
-1.115152 1.643098 -5.973147 111 54 43
-1.104377 1.643098 -5.973147 111 54 45
-1.057292 1.588542 -5.774820 110 51 45
-1.049608 1.592689 -5.789897 110 49 48
-1.040523 1.594771 -5.797466 116 50 52
-1.035857 1.620186 -5.889856 104 34 32
-1.025232 1.620186 -5.889856 101 34 26
-1.015282 1.621262 -5.893769 92 25 17
-1.005988 1.623420 -5.901612 104 34 32
-0.995343 1.623420 -5.901612 121 55 56
-0.986667 1.626667 -5.913415 122 66 69
-0.976651 1.627752 -5.917360 102 57 60
-0.965977 1.627752 -5.917360 90 58 61
-0.957860 1.632107 -5.933193 85 73 77
-0.949062 1.635389 -5.945123 75 86 90
-1.138211 1.983740 -7.211482 72 97 104
-1.123377 1.980520 -7.199775 77 109 120
-1.108590 1.977310 -7.188106 78 111 126
-1.091203 1.969330 -7.159099 80 107 124
-1.074819 1.962993 -7.136060 84 101 117
-1.048451 1.938046 -7.045372 91 94 111
-1.027581 1.922774 -6.989853 107 94 111
-1.007037 1.907740 -6.935202 124 95 113
-0.987578 1.894410 -6.886742 117 79 94
-0.967643 1.879815 -6.833685 125 79 92
-0.952381 1.874040 -6.812691 129 75 89
2.990215 4.774951 -17.358362 108 53 48
3.003891 4.747082 -17.257050 98 50 48
3.052838 4.774951 -17.358362 76 40 40
3.114625 4.822134 -17.529888 74 54 55
3.146245 4.822134 -17.529888 90 88 91
3.222445 4.889780 -17.775797 91 106 111
2.972177 3.993453 -14.517386 149 143 171
2.998363 3.993453 -14.517386 150 133 167
3.024550 3.993453 -14.517386 143 112 154
3.050736 3.993453 -14.517386 120 78 128
3.065649 3.725191 -13.542172 81 27 40
3.080670 3.713851 -13.500948 86 33 43
3.086233 3.691377 -13.419249 87 37 38
3.059524 3.630952 -13.199588 90 41 36
2.789474 2.293233 -8.336582 105 50 30
2.799250 2.288931 -8.320941 108 56 32
2.790698 2.269768 -8.251277 110 61 31
2.759378 2.232388 -8.115392 108 62 29
2.743891 2.208145 -8.027261 111 67 32
2.721429 2.178571 -7.919753 112 70 32
2.704325 2.153574 -7.828882 114 75 32
2.689956 2.131004 -7.746832 116 79 34
2.673575 2.107081 -7.659864 116 81 39
2.678141 2.099828 -7.633497 115 85 47
2.678082 2.089041 -7.594284 113 88 58
2.678024 2.078365 -7.555471 112 83 65
2.677966 2.067797 -7.517054 82 45 39
2.691525 2.067797 -7.517054 69 34 40
2.700508 2.064298 -7.504334 65 42 60
2.737201 2.081911 -7.568364 115 106 135
2.746167 2.078365 -7.555471 100 108 145
2.755102 2.074830 -7.542622 91 113 154
2.747679 2.059072 -7.485336 89 117 154
2.744967 2.046980 -7.441379 92 122 156
2.753769 2.043551 -7.428914 101 127 160
2.755630 2.035029 -7.397934 107 130 161
2.743802 2.016529 -7.330680 117 137 164
2.743421 2.006579 -7.294509 124 141 167
2.814442 2.048699 -7.447627 130 146 171
2.830252 2.050420 -7.453885 131 146 167
2.841310 2.048699 -7.447627 140 149 166
2.816901 2.021541 -7.348901 150 154 166
2.846667 2.033333 -7.391769 143 142 148
2.860000 2.033333 -7.391769 128 119 122
2.873333 2.033333 -7.391769 117 99 97
2.848684 2.006579 -7.294509 108 83 78
2.797428 1.961415 -7.130324 111 78 73
2.875000 2.006579 -7.294509 113 72 68
3.253464 1.988590 -7.229114 129 68 76
3.269168 1.990212 -7.235011 127 66 74
3.298361 2.000000 -7.270593 126 65 72
3.332786 2.004930 -7.288515 131 68 76
3.345933 2.004930 -7.288515 128 67 74
3.324148 1.769398 -6.432286 96 28 25
3.292770 1.746600 -6.349408 92 25 17
3.297143 1.742857 -6.335802 97 30 22
3.308571 1.742857 -6.335802 103 34 27
3.320000 1.742857 -6.335802 102 33 28
3.336195 1.745350 -6.344866 99 28 26
3.350036 1.746600 -6.349408 98 27 25
3.359084 1.745350 -6.344866 105 31 32
3.337111 1.728045 -6.281957 111 35 37
3.320225 1.713483 -6.229019 119 43 47
3.331461 1.713483 -6.229019 122 46 50
3.444284 1.765557 -6.418324 124 45 51
-3.048668 2.225895 -8.145200 138 70 93
-3.033976 2.225895 -8.145200 131 63 86
-3.019284 2.225895 -8.145200 113 45 70
-3.004591 2.225895 -8.145200 115 50 74
-2.995400 2.229991 -8.160187 128 64 88
-2.988930 2.236162 -8.182771 133 71 94
-2.976916 2.238227 -8.190326 127 65 86
-2.959409 2.236162 -8.182771 119 60 80
-2.939227 2.232044 -8.167701 113 54 72
-2.924494 2.232044 -8.167701 109 48 64
-2.880584 2.209663 -8.085800 107 44 61
-2.909767 2.254884 -8.251277 110 42 57
-2.538922 2.073567 -7.587787 118 44 35
-2.508071 2.059473 -7.536213 120 45 39
-1.925134 1.851795 -6.776259 100 49 54
-1.917305 1.856049 -6.791825 97 46 51
-1.900688 1.851795 -6.776259 106 55 60
-1.888464 1.851795 -6.776259 101 50 55
-1.261987 1.684503 -6.164088 110 52 41
-1.250000 1.683333 -6.159808 112 49 44
-1.237171 1.680999 -6.151264 110 45 41
-1.223529 1.677509 -6.138494 106 42 33
-1.205781 1.668272 -6.104696 105 41 31
-1.180150 1.647859 -6.029995 105 41 32
-1.168478 1.646739 -6.025899 107 44 37
-1.145183 1.644505 -6.017723 113 55 44
-1.125926 1.632323 -5.973147 115 58 47
-1.115152 1.632323 -5.973147 116 60 47
-1.097724 1.622490 -5.937164 115 58 47
-1.064220 1.588467 -5.812663 112 53 47
-1.053735 1.588467 -5.812663 113 52 51
-1.053607 1.604236 -5.870366 120 54 55
-1.043018 1.604236 -5.870366 115 47 46
-1.034483 1.607427 -5.882044 101 31 29
-1.023873 1.607427 -5.882044 102 35 27
-1.014608 1.609562 -5.889856 101 34 28
-1.005988 1.612774 -5.901612 109 39 41
-0.996005 1.613848 -5.905541 109 44 48
-0.986009 1.614923 -5.909476 110 53 59
-0.976000 1.616000 -5.913415 92 47 52
-0.967268 1.619238 -5.925266 86 55 60
-0.957860 1.621405 -5.933193 73 61 63
-0.946524 1.620321 -5.929226 62 72 74
-0.936455 1.621405 -5.933193 67 90 96
-1.123377 1.967533 -7.199775 72 100 112
-1.110390 1.967533 -7.199775 78 107 123
-1.091203 1.956416 -7.159099 87 109 130
-1.075684 1.951691 -7.141806 92 104 126
-1.059390 1.945425 -7.118879 102 99 120
-1.034100 1.922284 -7.034197 113 94 113
-1.014972 1.910165 -6.989853 122 88 102
-0.999214 1.904163 -6.967889 120 77 86
-0.978193 1.887851 -6.908195 122 72 81
-0.965732 1.887851 -6.908195 114 57 64
3.001965 4.762279 -17.426567 107 54 48
3.027451 4.752941 -17.392399 91 46 43
3.052838 4.743640 -17.358362 75 44 42
3.114625 4.790514 -17.529888 83 67 67
3.146245 4.790514 -17.529888 97 98 100
3.222445 4.857716 -17.775797 89 108 114
3.209486 4.790514 -17.529888 72 106 115
2.948760 4.006611 -14.661361 108 124 149
2.912621 3.922330 -14.352950 126 133 161
2.938511 3.922330 -14.352950 147 144 173
2.983713 3.947883 -14.446454 149 133 169
3.024550 3.967267 -14.517386 145 114 158
3.070840 3.993410 -14.613052 123 81 131
3.085366 3.695122 -13.521529 90 34 43
3.086233 3.667171 -13.419249 89 38 37
3.059524 3.607143 -13.199588 90 42 32
3.164706 3.564706 -13.044298 91 54 35
3.178886 3.554252 -13.006045 102 65 49
3.254843 3.612519 -13.219259 109 71 58
2.731525 2.267540 -8.297589 108 51 42
2.746492 2.267540 -8.297589 106 48 37
2.777046 2.280339 -8.344424 102 46 31
2.792098 2.280339 -8.344424 101 46 26
2.799250 2.273921 -8.320941 104 54 29
2.790698 2.254884 -8.251277 108 61 31
2.774609 2.229991 -8.160187 110 65 32
2.746377 2.195652 -8.034532 116 73 38
2.728738 2.170099 -7.941023 118 79 38
2.709107 2.143236 -7.842726 122 85 41
2.692308 2.118881 -7.753604 126 94 47
2.680520 2.098701 -7.679760 126 95 51
2.678141 2.086059 -7.633497 125 100 60
2.678082 2.075342 -7.594284 126 105 76
2.675745 2.062979 -7.549041 117 91 74
2.677966 2.054237 -7.517054 82 45 39
2.691525 2.054237 -7.517054 70 35 41
2.723550 2.068259 -7.568364 67 42 61
2.751287 2.078902 -7.607310 115 106 135
2.755556 2.071795 -7.581302 103 111 148
2.764505 2.068259 -7.568364 98 120 161
2.768708 2.061224 -7.542622 95 123 160
2.763514 2.047297 -7.491658 97 127 161
2.758389 2.033557 -7.441379 104 130 165
2.739635 2.009950 -7.354994 107 130 162
2.730263 1.993421 -7.294509 115 135 162
2.734426 1.986885 -7.270593 122 140 164
2.734095 1.977162 -7.235011 129 147 171
2.790389 2.008285 -7.348901 132 150 172
2.794385 2.001652 -7.324627 138 153 174
2.789171 1.988515 -7.276557 146 155 172
2.820809 2.001652 -7.324627 141 145 157
2.860000 2.020000 -7.391769 131 126 133
2.873333 2.020000 -7.391769 120 105 108
2.784566 1.948553 -7.130324 113 89 89
2.761905 1.923810 -7.039780 115 84 81
2.776807 1.925338 -7.045372 119 79 77
3.298361 1.986885 -7.270593 127 64 72
3.311476 1.986885 -7.270593 130 67 75
3.324590 1.986885 -7.270593 132 69 77
3.329518 1.982011 -7.252758 131 68 76
3.344070 1.774524 -6.493502 79 15 13
3.331395 1.761628 -6.446311 78 14 12
3.316510 1.747657 -6.395186 84 21 16
3.297143 1.731429 -6.335802 88 23 19
3.308571 1.731429 -6.335802 91 26 22
3.312901 1.727726 -6.322255 94 26 25
3.314854 1.722814 -6.304281 94 26 27
3.326226 1.722814 -6.304281 97 27 29
3.337598 1.722814 -6.304281 102 30 34
3.327684 1.711864 -6.264211 109 34 39
3.324894 1.704641 -6.237780 112 37 42
3.336146 1.704641 -6.237780 115 40 45
3.419540 1.741379 -6.372215 116 41 46
3.431035 1.741379 -6.372215 116 41 46
3.425304 1.732666 -6.340331 116 41 48
3.436741 1.732666 -6.340331 112 37 44
3.435897 1.726496 -6.317751 105 30 37
-3.051471 2.213235 -8.152687 130 63 81
-3.033976 2.211203 -8.145200 127 59 80
-3.019284 2.211203 -8.145200 127 59 82
-3.010120 2.215271 -8.160187 131 66 88
-3.014815 2.229630 -8.213077 135 72 93
-2.991690 2.223453 -8.190326 127 65 86
-2.976916 2.223453 -8.190326 118 56 77
-2.948529 2.213235 -8.152687 112 53 71
-2.931129 2.211203 -8.145200 109 51 66
-2.905764 2.203111 -8.115392 113 55 69
-2.880584 2.195077 -8.085800 104 44 56
-2.873857 2.201097 -8.107973 111 48 59
-2.549828 2.068728 -7.620380 115 42 35
-2.536083 2.068728 -7.620380 118 45 39
-2.485640 2.095735 -7.719863 116 42 41
-2.471714 2.095735 -7.719863 114 42 43
-2.449263 2.088465 -7.693081 104 35 38
-1.969512 1.835366 -6.760765 118 71 65
-1.925134 1.839572 -6.776259 103 53 56
-1.914373 1.840979 -6.781440 95 46 49
-1.900688 1.839572 -6.776259 110 61 64
-1.884146 1.835366 -6.760765 110 61 64
-1.871951 1.835366 -6.760765 107 58 61
-1.905063 1.905063 -7.017502 105 56 59
-1.360854 1.713879 -6.313255 104 48 35
-1.328662 1.687456 -6.215924 108 52 39
-1.317449 1.687456 -6.215924 110 57 43
-1.273106 1.673384 -6.164088 102 49 35
-1.261111 1.672222 -6.159808 108 51 40
-1.249133 1.671062 -6.155533 111 50 45
-1.238029 1.671062 -6.155533 110 47 40
-1.170865 1.639210 -6.038205 108 45 36
-1.172746 1.657261 -6.104696 107 47 39
-1.145961 1.634759 -6.021808 107 49 38
-1.126685 1.622642 -5.977172 113 56 45
-1.115903 1.622642 -5.977172 114 58 45
-1.099933 1.615023 -5.949110 116 59 48
-1.086288 1.610702 -5.933193 118 59 51
-1.074148 1.608550 -5.925266 119 58 55
-1.064883 1.610702 -5.933193 123 58 56
-1.045093 1.596817 -5.882044 120 50 48
-1.034483 1.596817 -5.882044 110 41 36
-1.023873 1.596817 -5.882044 102 35 29
-1.014608 1.598938 -5.889856 100 32 29
-1.005988 1.602129 -5.901612 106 35 39
-0.996005 1.603196 -5.905541 108 43 49
-0.986009 1.604264 -5.909476 114 57 64
-0.977956 1.608550 -5.925266 93 48 53
-0.971812 1.616107 -5.953103 89 59 61
-0.959786 1.613941 -5.945123 72 58 58
-0.947157 1.610702 -5.933193 61 70 69
-0.935829 1.609626 -5.929226 70 91 94
-1.123377 1.954545 -7.199775 69 95 108
-1.110390 1.954545 -7.199775 78 105 124
-1.091203 1.943503 -7.159099 93 113 137
-1.075684 1.938808 -7.141806 104 111 137
-1.059390 1.932584 -7.118879 119 110 137
-1.035743 1.912629 -7.045372 126 102 124
-1.018987 1.905063 -7.017502 125 87 98
-1.002364 1.897557 -6.989853 124 78 81
-0.986646 1.891595 -6.967889 125 73 77
-0.961986 1.868115 -6.881399 116 57 61
-0.944444 1.858025 -6.844231 97 32 38
-0.955696 1.905063 -7.017502 92 21 29
3.025743 4.768317 -17.564600 108 58 51
3.039370 4.740158 -17.460873 89 48 44
3.083004 4.758893 -17.529888 78 50 47
3.139442 4.796813 -17.669567 89 75 75
3.171315 4.796813 -17.669567 100 104 107
3.228916 4.835341 -17.811493 91 110 117
2.944538 4.047059 -14.907770 102 122 149
2.927152 3.986755 -14.685635 98 118 143
2.948760 3.980165 -14.661361 104 121 147
2.955665 3.954023 -14.565063 117 126 155
2.943274 3.902755 -14.376212 134 133 164
2.998363 3.941080 -14.517386 139 123 160
3.039474 3.960526 -14.589018 137 105 152
3.096345 4.000000 -14.734424 116 73 126
3.104295 3.693252 -13.604484 95 38 44
3.105023 3.665145 -13.500948 88 37 34
3.141176 3.541177 -13.044298 84 48 22
3.155425 3.530792 -13.006045 90 54 32
3.169591 3.520468 -12.968017 102 67 48
3.165217 3.489855 -12.855250 117 81 65
2.749529 2.267420 -8.352282 106 52 42
2.761994 2.265287 -8.344424 104 47 36
2.777046 2.265287 -8.344424 101 48 34
2.792098 2.265287 -8.344424 100 49 30
2.801878 2.261033 -8.328754 106 58 35
2.795899 2.244175 -8.266657 115 70 41
2.777164 2.217311 -8.167701 119 79 44
2.758872 2.191083 -8.071086 129 91 54
2.733632 2.159641 -7.955267 132 97 57
2.721137 2.138544 -7.877552 135 102 59
2.718446 2.125331 -7.828882 140 111 67
2.696864 2.097561 -7.726588 137 113 69
2.687392 2.079447 -7.659864 139 117 78
2.678082 2.061644 -7.594284 139 122 94
2.675745 2.049362 -7.549041 123 100 84
2.673435 2.037225 -7.504334 81 46 42
2.686971 2.037225 -7.504334 70 35 42
2.732877 2.061644 -7.594284 67 42 61
2.751287 2.065180 -7.607310 114 103 133
2.760274 2.061644 -7.594284 106 111 149
2.764505 2.054607 -7.568364 103 122 162
2.768708 2.047619 -7.542622 99 127 164
2.770534 2.038950 -7.510688 100 130 164
2.781726 2.037225 -7.504334 107 131 167
2.771812 2.020134 -7.441379 106 129 160
2.734761 1.983526 -7.306526 117 137 162
2.734426 1.973770 -7.270593 119 139 163
2.731866 1.962510 -7.229114 124 144 168
2.733766 1.954545 -7.199775 128 148 172
2.748985 1.956133 -7.205624 132 150 172
2.759740 1.954545 -7.199775 138 151 170
2.774980 1.956133 -7.205624 134 140 156
2.751390 1.912629 -7.045372 110 88 91
2.753165 1.905063 -7.017502 112 80 81
2.776807 1.912629 -7.045372 115 75 75
3.006849 2.061644 -7.594284 115 69 71
3.059844 2.088465 -7.693081 115 65 68
3.298361 1.973770 -7.270593 125 62 71
3.311476 1.973770 -7.270593 127 64 73
3.324590 1.973770 -7.270593 130 64 74
3.329518 1.968929 -7.252758 129 63 73
3.355783 1.762811 -6.493502 82 22 21
3.335751 1.746193 -6.432286 84 24 23
3.328046 1.736121 -6.395186 86 25 24
3.308571 1.720000 -6.335802 89 25 26
3.301136 1.710227 -6.299803 93 27 31
3.310149 1.709013 -6.295332 96 30 34
3.286517 1.691011 -6.229019 101 31 39
3.325779 1.705382 -6.281957 105 34 42
3.337111 1.705382 -6.281957 108 35 44
3.372325 1.717546 -6.326764 110 37 44
3.383738 1.717546 -6.326764 112 39 46
3.395150 1.717546 -6.326764 112 39 46
3.413867 1.721229 -6.340331 114 41 48
3.415538 1.716322 -6.322255 116 45 53
3.424501 1.715100 -6.317751 112 41 49
3.418852 1.706591 -6.286409 105 34 42
3.430191 1.706591 -6.286409 100 29 37
-3.057090 2.202578 -8.167701 115 51 68
-3.036765 2.198529 -8.152687 109 44 64
-3.044445 2.214815 -8.213077 125 60 82
-3.035250 2.218924 -8.228314 128 65 86
-3.020408 2.218924 -8.228314 124 61 82
-2.994455 2.210721 -8.197896 113 51 72
-2.974170 2.206642 -8.182771 111 49 70
-2.951242 2.200552 -8.160187 105 46 64
-2.931129 2.196511 -8.145200 114 56 70
-2.905764 2.188472 -8.115392 124 66 78
-2.880584 2.180492 -8.085800 106 46 54
-2.858182 2.174546 -8.063748 110 47 56
-2.823105 2.158845 -8.005527 106 41 49
-2.549828 2.054983 -7.620380 107 36 30
-2.527397 2.047945 -7.594284 112 41 35
-2.515679 2.083624 -7.726588 109 38 36
-2.501742 2.083624 -7.726588 109 38 36
-2.485640 2.081810 -7.719863 118 47 45
-2.465278 2.076389 -7.699759 117 47 47
-2.353333 1.993333 -7.391769 106 38 39
-2.332226 1.986711 -7.367212 98 29 32
-2.326667 1.993333 -7.391769 92 26 28
-1.971014 1.824561 -6.765922 121 77 68
-1.929556 1.831547 -6.791825 102 52 53
-1.917305 1.831547 -6.791825 98 49 52
-1.902141 1.828746 -6.781440 107 58 61
-1.887023 1.825954 -6.771086 116 67 70
-1.874809 1.825954 -6.771086 107 59 59
-1.924290 1.886435 -6.995365 102 54 54
-1.917722 1.892405 -7.017502 103 55 55
-1.905063 1.892405 -7.017502 101 53 51
-1.892405 1.892405 -7.017502 104 56 54
-1.375178 1.706134 -6.326764 106 50 37
-1.354108 1.694051 -6.281957 102 49 33
-1.328662 1.676244 -6.215924 107 54 38
-1.315605 1.673898 -6.207224 115 62 46
-1.306237 1.676244 -6.215924 118 65 49
-1.290503 1.670391 -6.194220 111 58 42
-1.273106 1.662265 -6.164088 104 51 37
-1.261111 1.661111 -6.159808 110 53 42
-1.249133 1.659958 -6.155533 114 54 46
-1.238029 1.659958 -6.155533 114 51 44
-1.183758 1.646249 -6.104696 106 46 36
-1.177609 1.653075 -6.130009 104 45 37
-1.151433 1.631651 -6.050561 105 47 36
-1.134328 1.622795 -6.017723 106 49 38
-1.115903 1.611860 -5.977172 106 50 37
-1.102151 1.607527 -5.961104 111 54 43
-1.089202 1.604292 -5.949110 117 58 50
-1.075585 1.600000 -5.933193 116 55 52
-1.064883 1.600000 -5.933193 113 48 46
-1.054181 1.600000 -5.933193 115 45 43
-1.034483 1.586207 -5.882044 117 48 43
-1.025232 1.588313 -5.889856 103 38 34
-1.015282 1.589369 -5.893769 93 28 26
-1.005319 1.590425 -5.897688 99 28 34
-0.996669 1.593604 -5.909476 119 52 59
-0.986667 1.594667 -5.913415 125 68 75
-0.981233 1.603217 -5.945123 93 48 51
-0.971812 1.605369 -5.953103 91 61 61
-0.961074 1.605369 -5.953103 83 69 68
-0.946524 1.598930 -5.929226 78 84 82
-0.934579 1.596796 -5.921310 80 99 103
-1.123377 1.941558 -7.199775 77 100 114
-1.110390 1.941558 -7.199775 81 106 126
-1.088567 1.925926 -7.141806 91 109 133
-1.073092 1.921285 -7.124597 101 108 136
-1.055156 1.912070 -7.090426 123 113 140
-1.035743 1.899921 -7.045372 136 108 131
-1.022222 1.898413 -7.039780 132 92 103
-1.003155 1.886435 -6.995365 126 77 80
-0.974399 1.855702 -6.881399 129 75 75
-0.954580 1.841416 -6.828424 127 69 68
-0.935780 1.828746 -6.781440 114 49 53
-0.917236 1.816249 -6.735097 103 34 39
3.080645 4.822581 -17.883312 108 60 50
3.075697 4.764940 -17.669567 96 57 50
3.107570 4.764940 -17.669567 82 57 53
3.171026 4.812877 -17.847330 85 75 74
3.196787 4.803213 -17.811493 101 106 110
3.228916 4.803213 -17.811493 97 117 124
3.254509 4.793587 -17.775797 84 116 129
2.949495 4.026936 -14.932867 93 112 142
2.932007 3.966832 -14.709989 97 117 144
2.953642 3.960265 -14.685635 106 123 151
2.960526 3.934211 -14.589018 111 122 150
2.981938 3.927750 -14.565063 120 119 151
3.058431 3.993322 -14.808219 121 105 144
3.085142 3.993322 -14.808219 122 90 139
3.111853 3.993322 -14.808219 104 61 114
3.104295 3.668712 -13.604484 89 30 32
3.128834 3.668712 -13.604484 87 34 28
3.121662 3.548961 -13.160420 80 41 12
3.164444 3.543704 -13.140924 82 45 18
3.146199 3.497076 -12.968017 87 51 25
3.137482 3.461650 -12.836647 104 69 47
3.151515 3.451659 -12.799601 120 85 66
3.165468 3.441727 -12.762767 125 88 72
2.764595 2.252354 -8.352282 111 59 48
2.777046 2.250235 -8.344424 107 58 44
2.792098 2.250235 -8.344424 104 57 39
2.804511 2.248120 -8.336582 111 66 43
2.798507 2.231343 -8.274368 118 77 49
2.810811 2.229264 -8.266657 123 87 53
2.789328 2.200552 -8.160187 132 98 60
2.743474 2.153015 -7.983909 136 104 65
2.738159 2.137623 -7.926830 138 109 69
2.735346 2.124334 -7.877552 139 114 73
2.727753 2.107489 -7.815086 134 112 71
2.703736 2.078193 -7.706449 133 115 79
2.678082 2.047945 -7.594284 133 117 91
2.662151 2.025402 -7.510688 117 98 83
2.668919 2.020270 -7.491658 82 48 46
2.682432 2.020270 -7.491658 69 34 41
2.730539 2.046193 -7.587787 66 41 60
2.746575 2.047945 -7.594284 113 103 130
2.755556 2.044445 -7.581302 104 110 146
2.752761 2.032285 -7.536213 102 122 159
2.761662 2.028838 -7.523429 98 127 161
2.770534 2.025402 -7.510688 100 130 164
2.781726 2.023689 -7.504334 108 132 166
2.790540 2.020270 -7.491658 109 130 161
2.780570 2.003350 -7.428914 112 134 158
2.745679 1.968724 -7.300513 115 137 158
2.745291 1.959050 -7.264638 121 143 166
2.733766 1.941558 -7.199775 127 147 171
2.746753 1.941558 -7.199775 134 150 173
2.759740 1.941558 -7.199775 140 153 172
2.770478 1.939984 -7.193936 139 145 161
2.761905 1.898413 -7.039780 121 91 93
2.985482 2.042699 -7.574828 127 88 91
3.006849 2.047945 -7.594284 133 88 93
3.036144 2.058520 -7.633497 139 90 96
3.073721 2.074588 -7.693081 134 83 92
3.319638 1.965489 -7.288515 123 60 69
3.332786 1.965489 -7.288515 123 60 69
3.345933 1.965489 -7.288515 122 59 70
3.367496 1.751098 -6.493502 85 31 31
3.328046 1.724585 -6.395186 85 30 33
3.303852 1.706134 -6.326764 87 30 36
3.298794 1.697658 -6.295332 92 32 40
3.282196 1.683322 -6.242170 97 36 44
3.268157 1.670391 -6.194220 100 39 47
3.272474 1.666899 -6.181271 102 39 48
3.360913 1.706134 -6.326764 102 39 48
3.372325 1.706134 -6.326764 100 37 45
3.400717 1.714695 -6.358511 100 37 45
3.395150 1.706134 -6.326764 100 37 45
3.404134 1.704918 -6.322255 100 39 46
3.413105 1.703704 -6.317751 101 40 47
3.419630 1.701280 -6.308764 96 37 43
3.431010 1.701280 -6.308764 89 29 37
-3.111940 2.216418 -8.274368 103 42 57
-3.088372 2.210232 -8.251277 101 43 58
-3.084967 2.218488 -8.282094 94 33 51
-3.081537 2.226804 -8.313143 108 46 67
-3.052239 2.216418 -8.274368 109 47 70
-3.034483 2.214352 -8.266657 110 48 71
-2.965961 2.185833 -8.160187 106 47 67
-2.951242 2.185833 -8.160187 104 43 61
-2.933824 2.183824 -8.152687 116 55 70
-2.916437 2.181818 -8.145200 121 61 71
-2.891125 2.173833 -8.115392 106 45 53
-2.837545 2.144404 -8.005527 113 48 56
-2.818018 2.140541 -7.991102 105 38 45
-2.536083 2.041237 -7.620380 107 42 36
-2.533218 2.050043 -7.653255 104 39 35
-2.521589 2.051813 -7.659864 106 41 37
-2.507772 2.051813 -7.659864 114 49 45
-2.515679 2.069686 -7.726588 122 57 51
-2.501742 2.069686 -7.726588 108 43 37
-2.487805 2.069686 -7.726588 104 39 33
-2.471714 2.067885 -7.719863 113 45 42
-2.353333 1.980000 -7.391769 107 37 37
-2.340000 1.980000 -7.391769 103 31 34
-2.326667 1.980000 -7.391769 101 31 33
-1.974026 1.815126 -6.776259 120 73 63
-1.958810 1.812357 -6.765922 122 73 69
-1.959815 1.836167 -6.854809 107 57 56
-1.945946 1.834749 -6.849516 110 60 59
-1.929122 1.830508 -6.833685 101 53 53
-1.915319 1.829099 -6.828424 94 46 46
-1.891354 1.817904 -6.786628 106 58 58
-1.896525 1.834749 -6.849516 104 56 54
-1.922774 1.872340 -6.989853 104 56 54
-1.913181 1.875296 -7.000886 106 58 56
-1.905063 1.879747 -7.017502 98 50 46
-1.892405 1.879747 -7.017502 99 52 46
-1.353149 1.681529 -6.277511 103 50 32
-1.326802 1.662701 -6.207224 109 56 38
-1.308281 1.653445 -6.172668 113 62 43
-1.295344 1.651147 -6.164088 116 63 45
-1.284225 1.651147 -6.164088 115 62 46
-1.272222 1.650000 -6.159808 112 59 45
-1.260236 1.648855 -6.155533 117 61 48
-1.249133 1.648855 -6.155533 117 59 48
-1.238029 1.648855 -6.155533 115 55 44
-1.180952 1.616327 -6.034097 108 48 37
-1.170068 1.616327 -6.034097 107 47 37
-1.157609 1.614130 -6.025899 108 49 41
-1.145183 1.611940 -6.017723 111 53 42
-1.126685 1.601078 -5.977172 108 51 40
-1.113652 1.597848 -5.965113 106 53 39
-1.102892 1.597848 -5.965113 109 52 41
-1.091398 1.596774 -5.961104 111 52 44
-1.078471 1.593561 -5.949110 107 46 43
-1.067740 1.593561 -5.949110 104 39 37
-1.057718 1.594631 -5.953103 108 40 37
-1.026596 1.579787 -5.897688 110 45 41
-1.015282 1.578737 -5.893769 99 34 32
-1.005319 1.579787 -5.897688 99 28 32
-0.997333 1.584000 -5.913415 123 56 63
-0.987984 1.586115 -5.921310 120 64 67
-0.983210 1.595702 -5.957101 86 42 43
-0.972465 1.595702 -5.957101 88 58 56
-0.961719 1.595702 -5.957101 90 76 73
-0.945892 1.587174 -5.925266 86 90 89
-0.934579 1.586115 -5.921310 83 101 105
-1.119741 1.922330 -7.176475 86 109 123
-1.106796 1.922330 -7.176475 86 111 133
-1.088567 1.913043 -7.141806 83 103 128
-1.070513 1.903846 -7.107471 93 100 126
-1.054313 1.897764 -7.084763 116 106 131
-1.040702 1.896249 -7.079109 131 103 125
-1.023034 1.887212 -7.045372 131 89 101
-1.004739 1.876777 -7.006416 125 74 79
-0.971384 1.837587 -6.860111 128 74 74
-0.946565 1.813740 -6.771086 129 71 70
-0.929385 1.804100 -6.735097 116 52 53
-0.913767 1.797277 -6.709624 103 34 37
-0.901664 1.797277 -6.709624 98 25 32
3.093117 4.809717 -17.955715 108 60 48
3.112903 4.790323 -17.883312 103 65 56
3.145161 4.790323 -17.883312 85 62 56
3.177419 4.790323 -17.883312 83 75 72
3.203219 4.780684 -17.847330 97 105 107
3.235412 4.780684 -17.847330 96 116 123
3.267606 4.780684 -17.847330 80 112 125
2.969491 4.027119 -15.034107 91 110 140
2.971429 3.993277 -14.907770 100 120 147
2.963455 3.946844 -14.734424 111 128 156
2.985075 3.940299 -14.709989 114 123 154
3.016611 3.946844 -14.734424 118 114 149
3.068677 3.979899 -14.857827 115 97 139
3.085142 3.966611 -14.808219 116 84 133
3.111853 3.966611 -14.808219 100 56 109
3.149079 3.979899 -14.857827 81 31 80
3.191919 4.000000 -14.932867 79 24 64
3.208054 3.986577 -14.882757 84 28 57
3.224080 3.973244 -14.832982 91 32 52
3.213223 3.927273 -14.661361 94 32 45
3.213115 3.895082 -14.541185 91 28 37
3.093991 3.661017 -13.667370 89 23 25
3.104295 3.644172 -13.604484 78 17 14
3.128834 3.644172 -13.604484 80 26 14
3.148545 3.638591 -13.583650 85 36 19
3.163359 3.627481 -13.542172 91 43 23
3.158850 3.594554 -13.419249 91 45 22
3.117037 3.520000 -13.140924 89 47 22
3.140741 3.520000 -13.140924 92 53 24
3.159763 3.514793 -13.121484 98 61 32
3.137026 3.463557 -12.930208 107 72 44
3.132948 3.433526 -12.818097 113 79 54
3.151515 3.428571 -12.799601 119 84 64
3.138374 3.389444 -12.653528 120 85 66
3.116737 3.341772 -12.475560 121 85 69
2.905307 2.472425 -9.230097 123 75 65
2.877049 2.434426 -9.088241 122 72 65
2.884576 2.426966 -9.060391 122 69 63
2.892057 2.419552 -9.032712 121 71 64
2.767201 2.239397 -8.360153 123 76 66
2.777046 2.235183 -8.344424 117 71 58
2.792098 2.235183 -8.344424 108 65 48
2.796626 2.226804 -8.313143 107 69 46
2.808989 2.224719 -8.305359 112 77 49
2.813433 2.216418 -8.274368 117 84 51
2.791897 2.187845 -8.167701 122 94 55
2.773430 2.161965 -8.071086 123 98 58
2.757876 2.138614 -7.983909 123 97 62
2.752458 2.123324 -7.926830 118 94 60
2.749556 2.110124 -7.877552 111 91 56
2.746690 2.097087 -7.828882 105 88 58
2.678082 2.034247 -7.594284 103 88 67
2.655406 2.006757 -7.491658 101 81 70
2.662174 2.001685 -7.472723 85 51 50
2.677909 2.003373 -7.479024 68 32 42
2.730539 2.032506 -7.587787 67 40 59
2.744226 2.032506 -7.587787 116 103 131
2.753202 2.029035 -7.574828 105 109 144
2.755102 2.020408 -7.542622 101 119 155
2.766355 2.018692 -7.536213 99 125 158
2.770534 2.011854 -7.510688 101 130 160
2.781726 2.010152 -7.504334 109 132 164
2.790540 2.006757 -7.491658 110 131 160
2.780570 1.989950 -7.428914 114 136 159
2.757025 1.963636 -7.330680 119 141 162
2.756579 1.953947 -7.294509 124 146 167
2.758395 1.945946 -7.264638 126 144 164
2.746753 1.928571 -7.199775 128 141 160
2.753036 1.923887 -7.182286 136 143 161
2.763754 1.922330 -7.176475 140 139 153
2.855241 1.976705 -7.379470 134 126 137
2.961702 2.022128 -7.549041 127 96 101
2.985482 2.029035 -7.574828 141 102 107
3.006849 2.034247 -7.594284 154 111 120
3.020548 2.034247 -7.594284 164 117 127
3.068398 2.057143 -7.679760 153 103 115
3.344928 1.721739 -6.427625 78 35 42
3.289773 1.687500 -6.299803 83 38 45
3.296454 1.685106 -6.290867 85 39 49
3.284507 1.673239 -6.246565 87 40 50
3.295775 1.673239 -6.246565 87 40 50
3.307042 1.673239 -6.246565 88 38 49
3.372325 1.694722 -6.326764 84 37 43
3.400717 1.703226 -6.358511 84 37 43
3.395150 1.694722 -6.326764 81 36 39
3.396871 1.689900 -6.308764 79 34 37
3.391366 1.681529 -6.277511 75 33 35
3.400283 1.680339 -6.273071 69 28 32
-3.111940 2.201493 -8.274368 97 40 49
-3.097015 2.201493 -8.274368 96 40 51
-3.096532 2.211809 -8.313143 91 33 47
-3.096045 2.222222 -8.352282 109 51 66
