ply
        format ascii 1.0
        element vertex 90367
        property float x
        property float y
        property float z
        property uchar red
        property uchar green
        property uchar blue
        end_header
0.681481 -0.760494 -5.488049 161 144 150
0.684597 -0.753056 -5.434376 147 127 136
0.688902 -0.747119 -5.391533 139 118 127
0.694394 -0.742616 -5.359035 126 105 114
0.702345 -0.740830 -5.346145 117 94 102
0.711111 -0.739940 -5.339723 107 82 88
0.705053 -0.723854 -5.223642 102 77 81
0.712778 -0.722157 -5.211394 98 72 75
0.729730 -0.693694 -5.005990 84 49 56
0.738739 -0.693694 -5.005990 71 38 45
3.647059 -3.019608 -21.790781 71 51 50
3.722772 -3.049505 -22.006531 69 51 49
3.958333 -3.208333 -23.152704 69 51 49
1.637717 -0.764268 -5.515285 65 33 38
1.641533 -0.761434 -5.494833 69 32 40
1.818674 -0.833559 -6.015317 73 32 40
1.668712 -0.755828 -5.454380 70 29 37
1.803560 -0.812129 -5.860672 66 26 34
1.814107 -0.812129 -5.860672 62 25 32
1.907972 -0.798445 -5.761918 62 61 59
1.918341 -0.798445 -5.761918 72 72 70
1.932468 -0.800000 -5.773142 73 73 73
1.949186 -0.802606 -5.791947 61 61 63
1.962166 -0.803653 -5.799503 56 51 58
1.975180 -0.804703 -5.807079 53 47 59
2.139154 -0.840382 -6.064556 56 33 41
2.136949 -0.835254 -6.027552 78 49 51
2.119064 -0.824080 -5.946916 71 37 36
2.115615 -0.818605 -5.907401 80 42 41
2.115003 -0.814276 -5.876166 92 48 49
2.108852 -0.807869 -5.829927 105 57 57
2.104167 -0.802083 -5.788176 114 65 60
2.104990 -0.798445 -5.761918 121 71 62
2.108527 -0.795866 -5.743307 120 70 59
2.114765 -0.794326 -5.732198 120 71 56
2.000000 -0.747573 -5.394805 116 67 50
-1.873874 -0.702703 -5.005990 155 155 155
-1.864865 -0.702703 -5.005990 151 151 151
-1.537809 -0.881979 -6.283137 155 155 155
-1.311475 -0.757741 -5.398080 155 155 155
-0.592593 -0.757741 -5.398080 155 155 155
-0.184466 -0.757282 -5.394805 155 155 155
-0.174757 -0.757282 -5.394805 155 155 155
-0.165049 -0.757282 -5.394805 155 155 155
-0.116505 -0.757282 -5.394805 154 152 155
-0.106796 -0.757282 -5.394805 158 156 157
-0.097087 -0.757282 -5.394805 157 155 158
-0.048544 -0.757282 -5.394805 154 156 155
0.000000 -0.757282 -5.394805 156 152 153
0.009709 -0.757282 -5.394805 156 155 153
0.019417 -0.757282 -5.394805 156 158 157
0.029126 -0.757282 -5.394805 153 155 154
0.038835 -0.757282 -5.394805 158 156 157
0.048544 -0.757282 -5.394805 156 154 155
0.058252 -0.757282 -5.394805 155 155 155
0.094173 -0.734550 -5.232866 151 153 152
0.184466 -0.757282 -5.394805 151 153 152
0.194175 -0.757282 -5.394805 155 156 158
0.203883 -0.757282 -5.394805 153 155 154
0.213592 -0.757282 -5.394805 153 155 154
0.223301 -0.757282 -5.394805 154 154 152
0.233010 -0.757282 -5.394805 154 154 152
0.242718 -0.757282 -5.394805 155 156 151
0.252427 -0.757282 -5.394805 156 155 151
0.262136 -0.757282 -5.394805 155 155 153
0.271845 -0.757282 -5.394805 155 155 155
0.281553 -0.757282 -5.394805 155 155 155
0.291262 -0.757282 -5.394805 155 155 157
0.300971 -0.757282 -5.394805 154 154 156
0.310680 -0.757282 -5.394805 153 154 158
0.320388 -0.757282 -5.394805 156 157 161
0.330097 -0.757282 -5.394805 154 155 157
0.359223 -0.757282 -5.394805 155 157 154
0.368932 -0.757282 -5.394805 153 155 152
0.407767 -0.757282 -5.394805 155 155 155
0.417476 -0.757282 -5.394805 155 155 155
0.427184 -0.757282 -5.394805 155 155 155
0.436893 -0.757282 -5.394805 156 156 154
0.446602 -0.757282 -5.394805 155 155 153
0.456311 -0.757282 -5.394805 153 155 152
0.466019 -0.757282 -5.394805 152 154 153
0.611650 -0.757282 -5.394805 159 153 155
0.670000 -0.780000 -5.556649 159 153 153
0.671605 -0.770370 -5.488049 159 155 154
0.671533 -0.759124 -5.407931 159 155 156
0.679200 -0.756822 -5.391533 159 155 156
0.684750 -0.752260 -5.359035 159 153 157
0.692724 -0.750451 -5.346145 164 155 160
0.702345 -0.750451 -5.346145 161 152 157
0.701838 -0.739775 -5.270088 159 148 154
0.697269 -0.725160 -5.165973 162 151 155
0.702079 -0.720554 -5.133163 163 153 154
0.710086 -0.719308 -5.124288 161 151 152
0.719308 -0.719308 -5.124288 160 152 150
0.711712 -0.702703 -5.005990 159 150 151
0.720721 -0.702703 -5.005990 162 151 155
0.729730 -0.702703 -5.005990 163 152 156
0.738739 -0.702703 -5.005990 160 149 153
1.626617 -0.768946 -5.477904 65 33 36
1.632452 -0.767056 -5.464437 68 31 38
1.639264 -0.765644 -5.454380 72 32 40
1.649080 -0.765644 -5.454380 73 32 40
1.658896 -0.765644 -5.454380 74 31 38
1.668712 -0.765644 -5.454380 72 29 36
1.682657 -0.767528 -5.467797 67 26 32
1.698765 -0.770370 -5.488049 64 25 30
1.743073 -0.785894 -5.598639 64 29 33
1.907972 -0.808814 -5.761918 50 49 47
1.918341 -0.808814 -5.761918 54 53 49
1.933723 -0.810916 -5.776893 54 54 52
1.949186 -0.813029 -5.791947 50 50 50
1.960887 -0.813559 -5.795723 49 44 50
1.971317 -0.813559 -5.795723 47 41 51
2.139851 -0.847251 -6.035736 77 49 48
2.106383 -0.829787 -5.911329 69 35 33
2.108609 -0.826490 -5.887840 84 44 42
2.105263 -0.821053 -5.849104 98 52 54
2.099217 -0.814621 -5.803289 106 58 58
2.094621 -0.808814 -5.761918 114 65 60
2.098191 -0.806202 -5.743307 122 72 63
2.097686 -0.802057 -5.713778 124 72 61
2.075949 -0.789873 -5.626987 122 73 59
2.000000 -0.757282 -5.394805 117 68 53
-1.873874 -0.711712 -5.005990 154 154 154
-1.864865 -0.711712 -5.005990 158 158 158
-1.639640 -0.711712 -5.005990 155 155 155
-1.630631 -0.711712 -5.005990 155 155 155
-1.747573 -0.766990 -5.394805 155 155 155
-1.737864 -0.766990 -5.394805 155 155 155
-1.650485 -0.766990 -5.394805 155 155 155
-1.522523 -0.711712 -5.005990 155 155 155
-1.513514 -0.711712 -5.005990 155 155 155
-1.621359 -0.766990 -5.394805 155 155 155
-1.592233 -0.766990 -5.394805 155 155 155
-1.468468 -0.711712 -5.005990 155 155 155
-1.459459 -0.711712 -5.005990 155 155 155
-1.563107 -0.766990 -5.394805 155 155 155
-1.417476 -0.766990 -5.394805 155 155 155
-1.312960 -0.715337 -5.031487 155 155 155
-1.398058 -0.766990 -5.394805 156 154 157
-1.388350 -0.766990 -5.394805 156 154 157
-1.270270 -0.711712 -5.005990 155 155 157
-1.261261 -0.711712 -5.005990 155 155 155
-1.252252 -0.711712 -5.005990 155 155 155
-1.330097 -0.766990 -5.394805 155 155 155
-1.225225 -0.711712 -5.005990 155 155 155
-1.216216 -0.711712 -5.005990 155 155 155
-1.297821 -0.765133 -5.381742 154 156 155
-1.288136 -0.765133 -5.381742 154 156 155
-1.278450 -0.765133 -5.381742 154 156 155
-1.272617 -0.767456 -5.398080 154 156 155
-1.262902 -0.767456 -5.398080 154 156 155
-1.252427 -0.766990 -5.394805 154 156 155
-1.242718 -0.766990 -5.394805 154 155 157
-1.233010 -0.766990 -5.394805 154 155 157
-1.223301 -0.766990 -5.394805 154 155 157
-1.213592 -0.766990 -5.394805 154 155 157
-1.147560 -0.743092 -5.226713 155 155 157
-1.138154 -0.743092 -5.226713 155 155 157
-1.024390 -0.770732 -5.421121 155 155 153
-1.012782 -0.769324 -5.411222 155 155 155
-1.003043 -0.769324 -5.411222 155 155 155
-0.819820 -0.711712 -5.005990 155 155 157
-0.810811 -0.711712 -5.005990 155 155 157
-0.801802 -0.711712 -5.005990 155 155 157
-0.792793 -0.711712 -5.005990 154 155 157
-0.787776 -0.715337 -5.031487 154 155 157
-0.835458 -0.767456 -5.398080 154 155 157
-0.612613 -0.711712 -5.005990 156 154 155
-0.651672 -0.768389 -5.404644 156 154 155
-0.641945 -0.768389 -5.404644 158 154 155
-0.612022 -0.767456 -5.398080 155 155 155
-0.562677 -0.716960 -5.042903 155 155 155
-0.552975 -0.716147 -5.037189 155 155 155
-0.543909 -0.716147 -5.037189 155 155 155
-0.573512 -0.767922 -5.401360 155 155 155
-0.560725 -0.763746 -5.371987 155 155 155
-0.551057 -0.763746 -5.371987 155 155 155
-0.541390 -0.763746 -5.371987 155 155 155
-0.387387 -0.711712 -5.005990 155 155 157
-0.378378 -0.711712 -5.005990 155 155 157
-0.369369 -0.711712 -5.005990 155 155 157
-0.360360 -0.711712 -5.005990 155 155 155
-0.333333 -0.711712 -5.005990 155 155 153
-0.324324 -0.711712 -5.005990 154 156 153
-0.203883 -0.766990 -5.394805 154 156 155
-0.180180 -0.711712 -5.005990 155 155 155
-0.171171 -0.711712 -5.005990 155 155 155
-0.162162 -0.711712 -5.005990 155 155 155
-0.153153 -0.711712 -5.005990 155 155 155
-0.155340 -0.766990 -5.394805 155 155 157
-0.126214 -0.766990 -5.394805 157 155 158
-0.108108 -0.711712 -5.005990 156 154 157
-0.099099 -0.711712 -5.005990 155 153 156
-0.090090 -0.711712 -5.005990 155 153 156
-0.081081 -0.711712 -5.005990 156 154 157
-0.077670 -0.766990 -5.394805 155 155 157
-0.067961 -0.766990 -5.394805 155 155 157
-0.054054 -0.711712 -5.005990 154 155 157
-0.045045 -0.711712 -5.005990 155 156 158
-0.036036 -0.711712 -5.005990 155 155 157
-0.029126 -0.766990 -5.394805 154 154 156
-0.019417 -0.766990 -5.394805 155 153 156
-0.009009 -0.711712 -5.005990 156 154 157
0.000000 -0.711712 -5.005990 159 155 156
0.009009 -0.711712 -5.005990 156 154 155
0.018018 -0.711712 -5.005990 156 156 156
0.027027 -0.711712 -5.005990 153 153 153
0.036036 -0.711712 -5.005990 158 156 157
0.045045 -0.711712 -5.005990 155 153 154
0.054054 -0.711712 -5.005990 156 156 154
0.063063 -0.711712 -5.005990 155 155 153
0.072072 -0.711712 -5.005990 154 154 154
0.081081 -0.711712 -5.005990 156 156 156
0.090090 -0.711712 -5.005990 155 156 158
0.100114 -0.718999 -5.057246 153 157 158
0.109589 -0.721461 -5.074565 155 155 155
0.126137 -0.766525 -5.391533 155 155 155
0.135266 -0.763285 -5.368743 156 156 154
0.144928 -0.763285 -5.368743 156 156 154
0.154589 -0.763285 -5.368743 153 153 153
0.165049 -0.766990 -5.394805 155 155 157
0.162162 -0.711712 -5.005990 156 156 158
0.171171 -0.711712 -5.005990 155 156 158
0.180180 -0.711712 -5.005990 154 155 157
0.189189 -0.711712 -5.005990 153 154 156
0.198198 -0.711712 -5.005990 156 158 157
0.207207 -0.711712 -5.005990 154 156 155
0.216216 -0.711712 -5.005990 156 156 154
0.225225 -0.711712 -5.005990 155 156 151
0.234234 -0.711712 -5.005990 154 154 152
0.243243 -0.711712 -5.005990 155 155 153
0.252252 -0.711712 -5.005990 155 157 156
0.261261 -0.711712 -5.005990 153 155 154
0.270270 -0.711712 -5.005990 155 155 157
0.279279 -0.711712 -5.005990 156 156 158
0.288288 -0.711712 -5.005990 154 155 159
0.297297 -0.711712 -5.005990 155 156 160
0.306306 -0.711712 -5.005990 153 154 156
0.339806 -0.766990 -5.394805 156 158 157
0.349515 -0.766990 -5.394805 153 155 154
0.333333 -0.711712 -5.005990 154 156 153
0.342342 -0.711712 -5.005990 152 154 151
0.351351 -0.711712 -5.005990 155 157 154
0.360360 -0.711712 -5.005990 155 157 156
0.369369 -0.711712 -5.005990 154 156 155
0.378378 -0.711712 -5.005990 153 154 156
0.387387 -0.711712 -5.005990 153 154 156
0.396396 -0.711712 -5.005990 154 156 155
0.405405 -0.711712 -5.005990 154 156 155
0.414414 -0.711712 -5.005990 154 156 153
0.423423 -0.711712 -5.005990 154 156 155
0.432432 -0.711712 -5.005990 155 157 156
0.441441 -0.711712 -5.005990 154 155 157
0.522523 -0.711712 -5.005990 155 154 152
0.531532 -0.711712 -5.005990 155 154 152
0.582524 -0.766990 -5.394805 156 155 153
0.592233 -0.766990 -5.394805 157 153 154
0.558559 -0.711712 -5.005990 158 154 155
0.567568 -0.711712 -5.005990 158 153 157
0.576577 -0.711712 -5.005990 158 154 155
0.631068 -0.766990 -5.394805 156 154 155
0.660000 -0.790000 -5.556649 156 156 154
0.652068 -0.768856 -5.407931 155 155 153
0.660194 -0.766990 -5.394805 153 155 152
0.669497 -0.766525 -5.391533 154 156 153
0.676737 -0.763746 -5.371987 155 157 156
0.681055 -0.757794 -5.330119 154 154 154
0.682869 -0.749259 -5.270088 154 154 156
0.688679 -0.745283 -5.242122 157 155 158
0.691185 -0.737887 -5.190098 156 154 159
0.691643 -0.728530 -5.124288 157 155 158
0.695254 -0.722699 -5.083270 157 155 156
0.697622 -0.715742 -5.034337 154 154 154
0.702703 -0.711712 -5.005990 156 156 154
0.711712 -0.711712 -5.005990 155 157 156
0.720721 -0.711712 -5.005990 153 154 156
0.729730 -0.711712 -5.005990 156 157 159
0.738739 -0.711712 -5.005990 154 156 155
1.622758 -0.781694 -5.498230 67 33 34
1.626617 -0.778805 -5.477904 67 32 36
1.631450 -0.776413 -5.461080 68 32 36
1.638259 -0.774985 -5.451035 72 33 38
1.648069 -0.774985 -5.451035 74 33 39
1.665025 -0.778325 -5.474531 74 31 38
1.674877 -0.778325 -5.474531 71 28 35
1.684729 -0.778325 -5.474531 67 24 31
1.701917 -0.781694 -5.498230 65 24 30
1.723537 -0.787049 -5.535890 66 30 34
1.755359 -0.796974 -5.605699 72 37 41
1.765448 -0.796974 -5.605699 72 43 47
1.856584 -0.823990 -5.795723 56 39 45
1.865798 -0.823453 -5.791947 54 39 44
1.877445 -0.823990 -5.795723 57 42 47
1.912930 -0.821313 -5.776893 52 48 47
1.922078 -0.820779 -5.773142 48 44 43
1.936239 -0.822381 -5.784410 47 46 44
1.949186 -0.823453 -5.791947 53 49 50
1.960887 -0.823990 -5.795723 52 45 52
1.971317 -0.823990 -5.795723 49 41 52
2.139851 -0.858113 -6.035736 77 48 50
2.099404 -0.837641 -5.891742 68 38 36
2.104428 -0.835426 -5.876166 92 57 55
2.098361 -0.828852 -5.829927 100 56 57
2.088312 -0.820779 -5.773142 106 56 57
2.079794 -0.813385 -5.721132 112 61 57
2.082051 -0.810256 -5.699127 123 70 64
2.073698 -0.803050 -5.648436 124 69 62
2.066793 -0.796471 -5.602167 124 72 59
-1.873874 -0.720721 -5.005990 146 146 146
-1.864865 -0.720721 -5.005990 143 143 143
-1.648649 -0.720721 -5.005990 157 157 157
-1.639640 -0.720721 -5.005990 155 155 155
-1.630631 -0.720721 -5.005990 153 153 153
-1.621622 -0.720721 -5.005990 157 157 157
-1.612613 -0.720721 -5.005990 155 155 155
-1.603604 -0.720721 -5.005990 153 153 153
-1.594595 -0.720721 -5.005990 157 157 157
-1.585586 -0.720721 -5.005990 156 156 156
-1.576577 -0.720721 -5.005990 155 155 155
-1.567568 -0.720721 -5.005990 154 154 154
-1.558559 -0.720721 -5.005990 154 154 154
-1.549550 -0.720721 -5.005990 155 155 155
-1.540541 -0.720721 -5.005990 156 156 156
-1.531532 -0.720721 -5.005990 156 156 156
-1.522523 -0.720721 -5.005990 154 154 154
-1.513514 -0.720721 -5.005990 153 153 153
-1.504505 -0.720721 -5.005990 156 156 156
-1.495495 -0.720721 -5.005990 157 157 157
-1.486486 -0.720721 -5.005990 155 155 155
-1.477477 -0.720721 -5.005990 154 154 154
-1.468468 -0.720721 -5.005990 156 156 156
-1.459459 -0.720721 -5.005990 156 156 156
-1.450450 -0.720721 -5.005990 155 155 155
-1.441441 -0.720721 -5.005990 155 155 155
-1.432432 -0.720721 -5.005990 157 157 157
-1.423423 -0.720721 -5.005990 155 155 155
-1.414414 -0.720721 -5.005990 154 154 154
-1.405405 -0.720721 -5.005990 156 156 156
-1.396396 -0.720721 -5.005990 156 156 156
-1.387387 -0.720721 -5.005990 153 153 153
-1.378378 -0.720721 -5.005990 154 154 154
-1.369369 -0.720721 -5.005990 155 155 155
-1.360360 -0.720721 -5.005990 155 155 155
-1.351351 -0.720721 -5.005990 155 155 155
-1.342342 -0.720721 -5.005990 155 155 155
-1.333333 -0.720721 -5.005990 155 155 155
-1.324324 -0.720721 -5.005990 155 155 155
-1.315315 -0.720721 -5.005990 155 155 155
-1.306306 -0.720721 -5.005990 155 155 155
-1.297297 -0.720721 -5.005990 155 155 155
-1.288288 -0.720721 -5.005990 155 155 155
-1.279279 -0.720721 -5.005990 155 155 155
-1.270270 -0.720721 -5.005990 155 155 155
-1.261261 -0.720721 -5.005990 155 155 155
-1.252252 -0.720721 -5.005990 155 155 155
-1.243243 -0.720721 -5.005990 155 155 155
-1.234234 -0.720721 -5.005990 155 155 155
-1.225225 -0.720721 -5.005990 155 155 155
-1.216216 -0.720721 -5.005990 155 155 155
-1.207207 -0.720721 -5.005990 155 155 155
-1.198198 -0.720721 -5.005990 155 155 155
-1.189189 -0.720721 -5.005990 155 155 155
-1.180180 -0.720721 -5.005990 155 155 155
-1.171171 -0.720721 -5.005990 155 155 155
-1.162162 -0.720721 -5.005990 155 155 155
-1.153153 -0.720721 -5.005990 155 155 155
-1.144144 -0.720721 -5.005990 155 155 155
-1.135135 -0.720721 -5.005990 155 155 155
-1.126126 -0.720721 -5.005990 155 155 155
-1.117117 -0.720721 -5.005990 155 155 155
-1.108108 -0.720721 -5.005990 155 155 155
-1.099099 -0.720721 -5.005990 155 155 155
-1.090090 -0.720721 -5.005990 155 155 155
-1.081081 -0.720721 -5.005990 155 155 155
-1.072072 -0.720721 -5.005990 155 155 155
-1.063063 -0.720721 -5.005990 155 155 155
-1.054054 -0.720721 -5.005990 155 155 155
-1.045045 -0.720721 -5.005990 155 155 155
-1.036036 -0.720721 -5.005990 155 155 155
-1.027027 -0.720721 -5.005990 155 155 155
-1.018018 -0.720721 -5.005990 155 155 155
-1.009009 -0.720721 -5.005990 155 155 155
-1.000000 -0.720721 -5.005990 155 155 155
-0.990991 -0.720721 -5.005990 155 155 155
-0.981982 -0.720721 -5.005990 155 155 155
-0.972973 -0.720721 -5.005990 155 155 155
-0.963964 -0.720721 -5.005990 155 155 155
-0.954955 -0.720721 -5.005990 155 155 155
-0.945946 -0.720721 -5.005990 155 155 155
-0.936937 -0.720721 -5.005990 155 155 155
-0.927928 -0.720721 -5.005990 155 155 155
-0.918919 -0.720721 -5.005990 155 155 155
-0.909910 -0.720721 -5.005990 155 155 155
-0.900901 -0.720721 -5.005990 155 155 155
-0.891892 -0.720721 -5.005990 155 155 155
-0.882883 -0.720721 -5.005990 155 155 155
-0.873874 -0.720721 -5.005990 155 155 155
-0.864865 -0.720721 -5.005990 155 155 155
-0.855856 -0.720721 -5.005990 155 155 155
-0.846847 -0.720721 -5.005990 155 155 157
-0.837838 -0.720721 -5.005990 155 155 155
-0.828829 -0.720721 -5.005990 155 155 155
-0.819820 -0.720721 -5.005990 155 155 155
-0.810811 -0.720721 -5.005990 155 155 155
-0.801802 -0.720721 -5.005990 155 155 155
-0.792793 -0.720721 -5.005990 155 155 155
-0.783784 -0.720721 -5.005990 155 155 155
-0.774775 -0.720721 -5.005990 155 155 155
-0.765766 -0.720721 -5.005990 155 155 155
-0.756757 -0.720721 -5.005990 155 155 155
-0.747748 -0.720721 -5.005990 154 156 155
-0.738739 -0.720721 -5.005990 155 155 157
-0.729730 -0.720721 -5.005990 155 155 155
-0.720721 -0.720721 -5.005990 155 155 155
-0.711712 -0.720721 -5.005990 155 155 155
-0.702703 -0.720721 -5.005990 155 155 155
-0.693694 -0.720721 -5.005990 155 155 155
-0.684685 -0.720721 -5.005990 155 155 155
-0.675676 -0.720721 -5.005990 155 155 155
-0.666667 -0.720721 -5.005990 155 155 155
-0.657658 -0.720721 -5.005990 155 155 155
-0.648649 -0.720721 -5.005990 155 155 155
-0.639640 -0.720721 -5.005990 155 155 155
-0.630631 -0.720721 -5.005990 155 155 155
-0.621622 -0.720721 -5.005990 155 155 155
-0.612613 -0.720721 -5.005990 155 155 155
-0.603604 -0.720721 -5.005990 155 155 155
-0.594595 -0.720721 -5.005990 156 154 155
-0.585586 -0.720721 -5.005990 155 155 155
-0.576577 -0.720721 -5.005990 155 155 155
-0.567568 -0.720721 -5.005990 155 155 155
-0.558559 -0.720721 -5.005990 155 155 155
-0.549550 -0.720721 -5.005990 155 155 155
-0.540541 -0.720721 -5.005990 155 155 155
-0.531532 -0.720721 -5.005990 155 155 155
-0.522523 -0.720721 -5.005990 155 155 155
-0.513514 -0.720721 -5.005990 155 155 155
-0.504505 -0.720721 -5.005990 155 155 155
-0.495495 -0.720721 -5.005990 155 155 155
-0.486486 -0.720721 -5.005990 155 155 155
-0.477477 -0.720721 -5.005990 155 155 155
-0.468468 -0.720721 -5.005990 155 155 155
-0.459459 -0.720721 -5.005990 155 155 155
-0.450450 -0.720721 -5.005990 155 155 155
-0.441441 -0.720721 -5.005990 155 155 155
-0.432432 -0.720721 -5.005990 155 155 155
-0.423423 -0.720721 -5.005990 155 155 155
-0.414414 -0.720721 -5.005990 155 155 157
-0.405405 -0.720721 -5.005990 155 155 155
-0.396396 -0.720721 -5.005990 155 155 155
-0.387387 -0.720721 -5.005990 155 155 155
-0.378378 -0.720721 -5.005990 155 155 155
-0.369369 -0.720721 -5.005990 155 155 155
-0.360360 -0.720721 -5.005990 155 155 155
-0.351351 -0.720721 -5.005990 155 155 155
-0.342342 -0.720721 -5.005990 155 155 155
-0.333333 -0.720721 -5.005990 155 155 155
-0.324324 -0.720721 -5.005990 155 155 155
-0.315315 -0.720721 -5.005990 155 155 155
-0.306306 -0.720721 -5.005990 155 155 155
-0.297297 -0.720721 -5.005990 155 155 155
-0.288288 -0.720721 -5.005990 155 155 155
-0.279279 -0.720721 -5.005990 154 156 155
-0.270270 -0.720721 -5.005990 155 155 155
-0.261261 -0.720721 -5.005990 154 156 155
-0.252252 -0.720721 -5.005990 155 155 155
-0.243243 -0.720721 -5.005990 154 156 155
-0.234234 -0.720721 -5.005990 155 155 155
-0.225225 -0.720721 -5.005990 155 155 155
-0.216216 -0.720721 -5.005990 155 155 155
-0.207207 -0.720721 -5.005990 155 155 155
-0.198198 -0.720721 -5.005990 155 155 155
-0.189189 -0.720721 -5.005990 155 155 155
-0.180180 -0.720721 -5.005990 155 155 155
-0.171171 -0.720721 -5.005990 155 155 155
-0.162162 -0.720721 -5.005990 155 155 155
-0.153153 -0.720721 -5.005990 155 155 155
-0.144144 -0.720721 -5.005990 155 155 155
-0.135135 -0.720721 -5.005990 155 155 155
-0.126126 -0.720721 -5.005990 155 155 155
-0.117117 -0.720721 -5.005990 155 155 155
-0.108108 -0.720721 -5.005990 155 155 155
-0.099099 -0.720721 -5.005990 155 155 155
-0.090090 -0.720721 -5.005990 155 155 155
-0.081081 -0.720721 -5.005990 155 155 155
-0.072072 -0.720721 -5.005990 155 155 155
-0.063063 -0.720721 -5.005990 155 155 155
-0.054054 -0.720721 -5.005990 155 155 155
-0.045045 -0.720721 -5.005990 155 155 155
-0.036036 -0.720721 -5.005990 155 155 155
-0.027027 -0.720721 -5.005990 155 155 155
-0.018018 -0.720721 -5.005990 155 155 155
-0.009009 -0.720721 -5.005990 155 155 155
0.000000 -0.720721 -5.005990 156 154 155
0.009009 -0.720721 -5.005990 155 155 155
0.018018 -0.720721 -5.005990 155 155 155
0.027027 -0.720721 -5.005990 155 155 155
0.036036 -0.720721 -5.005990 155 155 155
0.045045 -0.720721 -5.005990 155 155 155
0.054054 -0.720721 -5.005990 155 155 155
0.063063 -0.720721 -5.005990 155 155 155
0.072072 -0.720721 -5.005990 155 155 155
0.081081 -0.720721 -5.005990 155 155 155
0.090090 -0.720721 -5.005990 155 155 155
0.099099 -0.720721 -5.005990 154 156 155
0.108108 -0.720721 -5.005990 155 155 155
0.117117 -0.720721 -5.005990 155 155 155
0.126126 -0.720721 -5.005990 155 155 155
0.135135 -0.720721 -5.005990 155 155 155
0.144144 -0.720721 -5.005990 155 155 155
0.153153 -0.720721 -5.005990 155 155 155
0.162162 -0.720721 -5.005990 155 155 155
0.171171 -0.720721 -5.005990 155 155 155
0.180180 -0.720721 -5.005990 155 155 155
0.189189 -0.720721 -5.005990 155 155 155
0.198198 -0.720721 -5.005990 155 155 155
0.207207 -0.720721 -5.005990 155 155 155
0.216216 -0.720721 -5.005990 155 155 155
0.225225 -0.720721 -5.005990 155 155 153
0.234234 -0.720721 -5.005990 155 155 155
0.243243 -0.720721 -5.005990 155 155 155
0.252252 -0.720721 -5.005990 155 155 155
0.261261 -0.720721 -5.005990 155 155 155
0.270270 -0.720721 -5.005990 155 155 155
0.279279 -0.720721 -5.005990 155 155 155
0.288288 -0.720721 -5.005990 155 155 157
0.297297 -0.720721 -5.005990 155 155 157
0.306306 -0.720721 -5.005990 155 155 155
0.315315 -0.720721 -5.005990 155 155 155
0.324324 -0.720721 -5.005990 155 155 155
0.333333 -0.720721 -5.005990 155 155 155
0.342342 -0.720721 -5.005990 155 155 155
0.351351 -0.720721 -5.005990 155 155 155
0.360360 -0.720721 -5.005990 155 155 155
0.369369 -0.720721 -5.005990 155 155 155
0.378378 -0.720721 -5.005990 155 155 155
0.387387 -0.720721 -5.005990 155 155 155
0.396396 -0.720721 -5.005990 155 155 155
0.405405 -0.720721 -5.005990 155 155 155
0.414414 -0.720721 -5.005990 155 155 155
0.423423 -0.720721 -5.005990 155 155 155
0.432432 -0.720721 -5.005990 155 155 155
0.441441 -0.720721 -5.005990 155 155 155
0.450450 -0.720721 -5.005990 155 155 155
0.459459 -0.720721 -5.005990 155 155 155
0.468468 -0.720721 -5.005990 155 155 155
0.477477 -0.720721 -5.005990 155 155 155
0.486486 -0.720721 -5.005990 156 154 155
0.495495 -0.720721 -5.005990 155 155 155
0.504505 -0.720721 -5.005990 156 154 155
0.513514 -0.720721 -5.005990 155 155 153
0.522523 -0.720721 -5.005990 155 155 155
0.531532 -0.720721 -5.005990 155 155 155
0.540541 -0.720721 -5.005990 155 155 155
0.549550 -0.720721 -5.005990 156 154 155
0.558559 -0.720721 -5.005990 156 154 155
0.567568 -0.720721 -5.005990 156 154 155
0.576577 -0.720721 -5.005990 156 154 155
0.585586 -0.720721 -5.005990 155 155 155
0.594595 -0.720721 -5.005990 155 155 155
0.603604 -0.720721 -5.005990 155 155 155
0.612613 -0.720721 -5.005990 155 155 155
0.621622 -0.720721 -5.005990 155 155 155
0.659600 -0.753828 -5.235948 155 155 155
0.669811 -0.754717 -5.242122 155 155 155
0.679245 -0.754717 -5.242122 155 155 155
0.688679 -0.754717 -5.242122 155 155 155
0.683603 -0.739030 -5.133163 155 155 157
0.675676 -0.720721 -5.005990 155 155 155
0.684685 -0.720721 -5.005990 155 155 155
0.693694 -0.720721 -5.005990 155 155 155
0.702703 -0.720721 -5.005990 155 155 155
0.711712 -0.720721 -5.005990 155 155 155
0.720721 -0.720721 -5.005990 155 155 155
0.729730 -0.720721 -5.005990 155 155 155
0.738739 -0.720721 -5.005990 155 155 155
0.747748 -0.720721 -5.005990 155 155 155
1.622758 -0.791589 -5.498230 71 35 37
1.627620 -0.789149 -5.481282 72 33 36
1.636476 -0.788663 -5.477904 72 33 36
1.647349 -0.789149 -5.481282 73 32 36
1.666460 -0.793552 -5.511865 75 33 37
1.676379 -0.793552 -5.511865 72 30 34
1.683168 -0.792079 -5.501633 75 30 35
1.693069 -0.792079 -5.501633 73 28 33
1.702970 -0.792079 -5.501633 68 26 30
1.721393 -0.796020 -5.529004 70 28 32
1.755359 -0.807062 -5.605699 76 35 39
1.765448 -0.807062 -5.605699 76 40 44
1.775536 -0.807062 -5.605699 73 47 50
1.784499 -0.806553 -5.602167 66 46 47
1.851755 -0.832250 -5.780649 60 42 42
1.862159 -0.832250 -5.780649 53 37 37
1.876222 -0.833876 -5.791947 52 36 37
1.924577 -0.832250 -5.780649 54 45 48
1.936239 -0.832791 -5.784410 58 49 52
1.949186 -0.833876 -5.791947 61 52 57
1.960887 -0.834420 -5.795723 61 50 58
2.108609 -0.847682 -5.887840 98 72 71
2.098361 -0.839344 -5.829927 94 52 54
2.078862 -0.827408 -5.747019 102 50 52
2.062540 -0.816848 -5.673668 109 55 53
2.059607 -0.811668 -5.637691 116 61 56
2.060606 -0.808081 -5.612777 122 65 58
2.056426 -0.802508 -5.574068 122 65 54
-1.873874 -0.729730 -5.005990 78 78 78
-1.864865 -0.729730 -5.005990 80 80 80
-1.855856 -0.729730 -5.005990 81 81 81
-1.828829 -0.729730 -5.005990 81 81 81
-1.819820 -0.729730 -5.005990 82 82 82
-1.783784 -0.729730 -5.005990 81 81 81
-1.774775 -0.729730 -5.005990 83 83 83
-1.765766 -0.729730 -5.005990 79 79 79
-1.756757 -0.729730 -5.005990 78 78 78
-1.747748 -0.729730 -5.005990 80 80 80
-1.738739 -0.729730 -5.005990 78 78 78
-1.729730 -0.729730 -5.005990 80 80 80
-1.720721 -0.729730 -5.005990 80 80 80
-1.711712 -0.729730 -5.005990 79 79 79
-1.702703 -0.729730 -5.005990 81 81 81
-1.693694 -0.729730 -5.005990 89 89 89
-1.684685 -0.729730 -5.005990 101 101 101
-1.666667 -0.729730 -5.005990 112 112 112
-1.657658 -0.729730 -5.005990 129 129 129
-1.648649 -0.729730 -5.005990 141 141 141
-1.639640 -0.729730 -5.005990 145 145 145
-1.630631 -0.729730 -5.005990 146 146 146
-1.621622 -0.729730 -5.005990 152 152 152
-1.612613 -0.729730 -5.005990 156 156 156
-1.603604 -0.729730 -5.005990 154 154 154
-1.594595 -0.729730 -5.005990 153 153 153
-1.585586 -0.729730 -5.005990 153 153 153
-1.576577 -0.729730 -5.005990 157 157 157
-1.567568 -0.729730 -5.005990 158 158 158
-1.558559 -0.729730 -5.005990 155 155 155
-1.549550 -0.729730 -5.005990 153 153 153
-1.540541 -0.729730 -5.005990 154 154 154
-1.531532 -0.729730 -5.005990 156 156 156
-1.522523 -0.729730 -5.005990 156 156 156
-1.513514 -0.729730 -5.005990 156 156 156
-1.504505 -0.729730 -5.005990 155 155 155
-1.495495 -0.729730 -5.005990 155 155 155
-1.486486 -0.729730 -5.005990 155 155 155
-1.477477 -0.729730 -5.005990 154 154 154
-1.468468 -0.729730 -5.005990 155 155 155
-1.459459 -0.729730 -5.005990 156 156 156
-1.450450 -0.729730 -5.005990 154 154 154
-1.441441 -0.729730 -5.005990 156 156 156
-1.432432 -0.729730 -5.005990 151 151 151
-1.423423 -0.729730 -5.005990 154 154 154
-1.414414 -0.729730 -5.005990 158 158 158
-1.405405 -0.729730 -5.005990 155 155 155
-1.396396 -0.729730 -5.005990 154 154 154
-1.387387 -0.729730 -5.005990 157 157 157
-1.378378 -0.729730 -5.005990 157 157 157
-1.369369 -0.729730 -5.005990 155 155 155
-1.360360 -0.729730 -5.005990 155 155 155
-1.351351 -0.729730 -5.005990 155 155 155
-1.342342 -0.729730 -5.005990 155 155 155
-1.333333 -0.729730 -5.005990 155 155 155
-1.324324 -0.729730 -5.005990 155 155 155
-1.315315 -0.729730 -5.005990 155 155 155
-1.306306 -0.729730 -5.005990 155 155 155
-1.297297 -0.729730 -5.005990 155 155 155
-1.288288 -0.729730 -5.005990 155 155 155
-1.279279 -0.729730 -5.005990 155 155 155
-1.270270 -0.729730 -5.005990 155 155 155
-1.261261 -0.729730 -5.005990 155 155 155
-1.252252 -0.729730 -5.005990 155 155 155
-1.243243 -0.729730 -5.005990 155 155 155
-1.234234 -0.729730 -5.005990 155 155 155
-1.225225 -0.729730 -5.005990 155 155 155
-1.216216 -0.729730 -5.005990 155 155 155
-1.207207 -0.729730 -5.005990 155 155 155
-1.198198 -0.729730 -5.005990 155 155 155
-1.189189 -0.729730 -5.005990 155 155 155
-1.180180 -0.729730 -5.005990 155 155 155
-1.171171 -0.729730 -5.005990 155 155 155
-1.162162 -0.729730 -5.005990 155 155 155
-1.153153 -0.729730 -5.005990 155 155 155
-1.144144 -0.729730 -5.005990 155 155 155
-1.135135 -0.729730 -5.005990 155 155 155
-1.126126 -0.729730 -5.005990 155 155 155
-1.117117 -0.729730 -5.005990 155 155 155
-1.108108 -0.729730 -5.005990 155 155 155
-1.099099 -0.729730 -5.005990 155 155 155
-1.090090 -0.729730 -5.005990 155 155 155
-1.081081 -0.729730 -5.005990 155 155 155
-1.072072 -0.729730 -5.005990 155 155 155
-1.063063 -0.729730 -5.005990 155 155 155
-1.054054 -0.729730 -5.005990 155 155 155
-1.045045 -0.729730 -5.005990 155 155 155
-1.036036 -0.729730 -5.005990 155 155 155
-1.027027 -0.729730 -5.005990 155 155 155
-1.018018 -0.729730 -5.005990 155 155 155
-1.009009 -0.729730 -5.005990 155 155 155
-1.000000 -0.729730 -5.005990 155 155 155
-0.990991 -0.729730 -5.005990 155 155 155
-0.981982 -0.729730 -5.005990 155 155 155
-0.972973 -0.729730 -5.005990 155 155 155
-0.963964 -0.729730 -5.005990 155 155 155
-0.954955 -0.729730 -5.005990 155 155 155
-0.945946 -0.729730 -5.005990 155 155 155
-0.936937 -0.729730 -5.005990 155 155 155
-0.927928 -0.729730 -5.005990 155 155 155
-0.918919 -0.729730 -5.005990 155 155 155
-0.909910 -0.729730 -5.005990 155 155 155
-0.900901 -0.729730 -5.005990 155 155 155
-0.891892 -0.729730 -5.005990 155 155 155
-0.882883 -0.729730 -5.005990 155 155 155
-0.873874 -0.729730 -5.005990 155 155 155
-0.864865 -0.729730 -5.005990 155 155 155
-0.855856 -0.729730 -5.005990 155 155 155
-0.846847 -0.729730 -5.005990 155 155 155
-0.837838 -0.729730 -5.005990 155 155 155
-0.828829 -0.729730 -5.005990 155 155 155
-0.819820 -0.729730 -5.005990 155 155 155
-0.810811 -0.729730 -5.005990 155 155 155
-0.801802 -0.729730 -5.005990 155 155 155
-0.792793 -0.729730 -5.005990 155 155 155
-0.783784 -0.729730 -5.005990 155 155 155
-0.774775 -0.729730 -5.005990 155 155 155
-0.765766 -0.729730 -5.005990 155 155 155
-0.756757 -0.729730 -5.005990 155 155 155
-0.747748 -0.729730 -5.005990 155 155 155
-0.738739 -0.729730 -5.005990 155 155 155
-0.729730 -0.729730 -5.005990 155 155 155
-0.720721 -0.729730 -5.005990 155 155 155
-0.711712 -0.729730 -5.005990 155 155 155
-0.702703 -0.729730 -5.005990 155 155 155
-0.693694 -0.729730 -5.005990 155 155 155
-0.684685 -0.729730 -5.005990 155 155 155
-0.675676 -0.729730 -5.005990 155 155 155
-0.666667 -0.729730 -5.005990 155 155 155
-0.657658 -0.729730 -5.005990 155 155 155
-0.648649 -0.729730 -5.005990 155 155 155
-0.639640 -0.729730 -5.005990 155 155 155
-0.630631 -0.729730 -5.005990 155 155 155
-0.621622 -0.729730 -5.005990 155 155 155
-0.612613 -0.729730 -5.005990 155 155 155
-0.603604 -0.729730 -5.005990 155 155 155
-0.594595 -0.729730 -5.005990 155 155 155
-0.585586 -0.729730 -5.005990 155 155 155
-0.576577 -0.729730 -5.005990 155 155 155
-0.567568 -0.729730 -5.005990 155 155 155
-0.558559 -0.729730 -5.005990 155 155 155
-0.549550 -0.729730 -5.005990 155 155 155
-0.540541 -0.729730 -5.005990 155 155 155
-0.531532 -0.729730 -5.005990 155 155 155
-0.522523 -0.729730 -5.005990 155 155 155
-0.513514 -0.729730 -5.005990 155 155 155
-0.504505 -0.729730 -5.005990 155 155 155
-0.495495 -0.729730 -5.005990 155 155 155
-0.486486 -0.729730 -5.005990 155 155 155
-0.477477 -0.729730 -5.005990 155 155 155
-0.468468 -0.729730 -5.005990 155 155 155
-0.459459 -0.729730 -5.005990 155 155 155
-0.450450 -0.729730 -5.005990 155 155 155
-0.441441 -0.729730 -5.005990 155 155 155
-0.432432 -0.729730 -5.005990 155 155 155
-0.423423 -0.729730 -5.005990 155 155 155
-0.414414 -0.729730 -5.005990 155 155 155
-0.405405 -0.729730 -5.005990 155 155 155
-0.396396 -0.729730 -5.005990 155 155 155
-0.387387 -0.729730 -5.005990 155 155 155
-0.378378 -0.729730 -5.005990 155 155 155
-0.369369 -0.729730 -5.005990 155 155 155
-0.360360 -0.729730 -5.005990 155 155 155
-0.351351 -0.729730 -5.005990 155 155 155
-0.342342 -0.729730 -5.005990 155 155 155
-0.333333 -0.729730 -5.005990 155 155 155
-0.324324 -0.729730 -5.005990 155 155 155
-0.315315 -0.729730 -5.005990 155 155 155
-0.306306 -0.729730 -5.005990 155 155 155
-0.297297 -0.729730 -5.005990 155 155 155
-0.288288 -0.729730 -5.005990 155 155 155
-0.279279 -0.729730 -5.005990 155 155 155
-0.270270 -0.729730 -5.005990 155 155 155
-0.261261 -0.729730 -5.005990 155 155 155
-0.252252 -0.729730 -5.005990 155 155 155
-0.243243 -0.729730 -5.005990 155 155 155
-0.234234 -0.729730 -5.005990 155 155 155
-0.225225 -0.729730 -5.005990 155 155 155
-0.216216 -0.729730 -5.005990 155 155 155
-0.207207 -0.729730 -5.005990 155 155 155
-0.198198 -0.729730 -5.005990 155 155 155
-0.189189 -0.729730 -5.005990 155 155 155
-0.180180 -0.729730 -5.005990 155 155 155
-0.171171 -0.729730 -5.005990 155 155 155
-0.162162 -0.729730 -5.005990 155 155 155
-0.153153 -0.729730 -5.005990 155 155 155
-0.144144 -0.729730 -5.005990 155 155 155
-0.135135 -0.729730 -5.005990 155 155 155
-0.126126 -0.729730 -5.005990 155 155 155
-0.117117 -0.729730 -5.005990 155 155 155
-0.108108 -0.729730 -5.005990 155 155 155
-0.099099 -0.729730 -5.005990 155 155 155
-0.090090 -0.729730 -5.005990 155 155 155
-0.081081 -0.729730 -5.005990 155 155 155
-0.072072 -0.729730 -5.005990 155 155 155
-0.063063 -0.729730 -5.005990 155 155 155
-0.054054 -0.729730 -5.005990 155 155 155
-0.045045 -0.729730 -5.005990 155 155 155
-0.036036 -0.729730 -5.005990 155 155 155
-0.027027 -0.729730 -5.005990 155 155 155
-0.018018 -0.729730 -5.005990 155 155 155
-0.009009 -0.729730 -5.005990 155 155 155
0.000000 -0.729730 -5.005990 155 155 155
0.009009 -0.729730 -5.005990 155 155 155
0.018018 -0.729730 -5.005990 155 155 155
0.027027 -0.729730 -5.005990 155 155 155
0.036036 -0.729730 -5.005990 155 155 155
0.045045 -0.729730 -5.005990 155 155 155
0.054054 -0.729730 -5.005990 155 155 155
0.063063 -0.729730 -5.005990 155 155 155
0.072072 -0.729730 -5.005990 155 155 155
0.081081 -0.729730 -5.005990 155 155 155
0.090090 -0.729730 -5.005990 155 155 155
0.099099 -0.729730 -5.005990 155 155 155
0.108108 -0.729730 -5.005990 155 155 155
0.117117 -0.729730 -5.005990 155 155 155
0.126126 -0.729730 -5.005990 155 155 155
0.135135 -0.729730 -5.005990 155 155 155
0.144144 -0.729730 -5.005990 155 155 155
0.153153 -0.729730 -5.005990 155 155 155
0.162162 -0.729730 -5.005990 155 155 155
0.171171 -0.729730 -5.005990 155 155 155
0.180180 -0.729730 -5.005990 155 155 155
0.189189 -0.729730 -5.005990 155 155 155
0.198198 -0.729730 -5.005990 155 155 155
0.207207 -0.729730 -5.005990 155 155 155
0.216216 -0.729730 -5.005990 155 155 155
0.225225 -0.729730 -5.005990 155 155 155
0.234234 -0.729730 -5.005990 155 155 155
0.243243 -0.729730 -5.005990 155 155 155
0.252252 -0.729730 -5.005990 155 155 155
0.261261 -0.729730 -5.005990 155 155 155
0.270270 -0.729730 -5.005990 155 155 155
0.279279 -0.729730 -5.005990 155 155 155
0.288288 -0.729730 -5.005990 155 155 155
0.297297 -0.729730 -5.005990 155 155 155
0.306306 -0.729730 -5.005990 155 155 155
0.315315 -0.729730 -5.005990 155 155 155
0.324324 -0.729730 -5.005990 155 155 155
0.333333 -0.729730 -5.005990 155 155 155
0.342342 -0.729730 -5.005990 155 155 155
0.351351 -0.729730 -5.005990 155 155 155
0.360360 -0.729730 -5.005990 155 155 155
0.369369 -0.729730 -5.005990 155 155 155
0.378378 -0.729730 -5.005990 155 155 155
0.387387 -0.729730 -5.005990 155 155 155
0.396396 -0.729730 -5.005990 155 155 155
0.405405 -0.729730 -5.005990 155 155 155
0.414414 -0.729730 -5.005990 155 155 155
0.423423 -0.729730 -5.005990 155 155 155
0.432432 -0.729730 -5.005990 155 155 155
0.441441 -0.729730 -5.005990 155 155 155
0.450450 -0.729730 -5.005990 155 155 155
0.459459 -0.729730 -5.005990 155 155 155
0.468468 -0.729730 -5.005990 155 155 155
0.477477 -0.729730 -5.005990 155 155 155
0.486486 -0.729730 -5.005990 155 155 155
0.495495 -0.729730 -5.005990 155 155 155
0.504505 -0.729730 -5.005990 155 155 155
0.513514 -0.729730 -5.005990 155 155 155
0.522523 -0.729730 -5.005990 155 155 155
0.531532 -0.729730 -5.005990 155 155 155
0.540541 -0.729730 -5.005990 155 155 155
0.549550 -0.729730 -5.005990 155 155 155
0.558559 -0.729730 -5.005990 155 155 155
0.567568 -0.729730 -5.005990 155 155 155
0.576577 -0.729730 -5.005990 155 155 155
0.585586 -0.729730 -5.005990 155 155 155
0.594595 -0.729730 -5.005990 155 155 155
0.603604 -0.729730 -5.005990 155 155 155
0.612613 -0.729730 -5.005990 155 155 155
0.621622 -0.729730 -5.005990 155 155 155
0.630631 -0.729730 -5.005990 155 155 155
0.665105 -0.758782 -5.205292 155 155 155
0.674473 -0.758782 -5.205292 155 155 155
0.681845 -0.756567 -5.190098 155 155 155
0.666667 -0.729730 -5.005990 155 155 155
0.675676 -0.729730 -5.005990 155 155 155
0.684685 -0.729730 -5.005990 155 155 155
0.693694 -0.729730 -5.005990 155 155 155
0.702703 -0.729730 -5.005990 155 155 155
0.711712 -0.729730 -5.005990 155 155 155
0.720721 -0.729730 -5.005990 155 155 155
0.729730 -0.729730 -5.005990 155 155 155
0.738739 -0.729730 -5.005990 155 155 155
0.747748 -0.729730 -5.005990 155 155 155
0.756757 -0.729730 -5.005990 155 155 155
7.625000 -5.062500 -34.729057 159 153 155
7.687500 -5.062500 -34.729057 163 157 159
7.750000 -5.062500 -34.729057 158 152 154
7.812500 -5.062500 -34.729057 157 151 153
1.632653 -0.801484 -5.498230 75 41 42
1.637485 -0.799014 -5.481282 74 39 43
1.900427 -0.921764 -6.323356 74 38 40
1.903683 -0.917847 -6.296486 71 35 39
1.901547 -0.911392 -6.252207 75 36 39
1.693649 -0.806974 -5.535890 71 32 37
1.696218 -0.803472 -5.511865 69 30 33
1.706138 -0.803472 -5.511865 70 31 36
1.838961 -0.841558 -5.773142 63 42 41
1.852960 -0.843201 -5.784410 64 44 43
1.863370 -0.843201 -5.784410 61 43 41
1.963190 -0.883436 -6.060422 58 40 40
2.017723 -0.883436 -6.060422 61 49 53
1.942559 -0.845953 -5.803289 64 51 58
1.953003 -0.845953 -5.803289 70 55 62
2.063100 -0.888889 -6.097832 70 54 64
2.136949 -0.878644 -6.027552 74 47 56
2.127602 -0.870383 -5.970879 75 59 60
2.122667 -0.864000 -5.927093 92 72 73
2.126246 -0.861130 -5.907401 92 53 56
2.104712 -0.848168 -5.818481 99 50 53
2.071795 -0.830769 -5.699127 105 51 51
2.063532 -0.823380 -5.648436 111 56 53
2.060606 -0.818182 -5.612777 114 59 54
2.056426 -0.812539 -5.574068 115 60 53
-1.873874 -0.738739 -5.005990 80 80 80
-1.864865 -0.738739 -5.005990 81 81 81
-1.855856 -0.738739 -5.005990 81 81 81
-1.846847 -0.738739 -5.005990 80 80 80
-1.837838 -0.738739 -5.005990 80 80 80
-1.828829 -0.738739 -5.005990 80 80 80
-1.819820 -0.738739 -5.005990 79 79 79
-1.810811 -0.738739 -5.005990 77 77 77
-1.801802 -0.738739 -5.005990 80 80 80
-1.792793 -0.738739 -5.005990 79 79 79
-1.783784 -0.738739 -5.005990 80 80 80
-1.774775 -0.738739 -5.005990 80 80 80
-1.765766 -0.738739 -5.005990 79 79 79
-1.756757 -0.738739 -5.005990 82 82 82
-1.747748 -0.738739 -5.005990 84 84 84
-1.738739 -0.738739 -5.005990 79 79 79
-1.729730 -0.738739 -5.005990 80 80 80
-1.720721 -0.738739 -5.005990 81 81 81
-1.711712 -0.738739 -5.005990 80 80 80
-1.702703 -0.738739 -5.005990 79 79 79
-1.693694 -0.738739 -5.005990 80 80 80
-1.684685 -0.738739 -5.005990 81 81 81
-1.675676 -0.738739 -5.005990 81 81 81
-1.666667 -0.738739 -5.005990 79 79 79
-1.657658 -0.738739 -5.005990 78 78 78
-1.648649 -0.738739 -5.005990 82 82 82
-1.639640 -0.738739 -5.005990 80 80 80
-1.630631 -0.738739 -5.005990 78 78 78
-1.621622 -0.738739 -5.005990 81 81 81
-1.612613 -0.738739 -5.005990 82 82 82
-1.603604 -0.738739 -5.005990 84 84 84
-1.594595 -0.738739 -5.005990 89 89 89
-1.585586 -0.738739 -5.005990 91 91 91
-1.576577 -0.738739 -5.005990 86 86 86
-1.567568 -0.738739 -5.005990 97 97 97
-1.558559 -0.738739 -5.005990 119 119 119
-1.549550 -0.738739 -5.005990 128 128 128
-1.540541 -0.738739 -5.005990 126 126 126
-1.531532 -0.738739 -5.005990 137 137 137
-1.522523 -0.738739 -5.005990 156 156 156
-1.513514 -0.738739 -5.005990 156 156 156
-1.504505 -0.738739 -5.005990 153 153 153
-1.495495 -0.738739 -5.005990 155 155 155
-1.486486 -0.738739 -5.005990 157 157 157
-1.477477 -0.738739 -5.005990 155 155 155
-1.468468 -0.738739 -5.005990 155 155 155
-1.459459 -0.738739 -5.005990 157 157 157
-1.450450 -0.738739 -5.005990 155 155 155
-1.441441 -0.738739 -5.005990 155 155 155
-1.432432 -0.738739 -5.005990 156 156 156
-1.423423 -0.738739 -5.005990 157 157 157
-1.414414 -0.738739 -5.005990 155 155 155
-1.405405 -0.738739 -5.005990 153 153 153
-1.396396 -0.738739 -5.005990 155 155 155
-1.387387 -0.738739 -5.005990 155 155 155
-1.378378 -0.738739 -5.005990 153 153 153
-1.369369 -0.738739 -5.005990 155 155 155
-1.360360 -0.738739 -5.005990 155 155 155
-1.351351 -0.738739 -5.005990 155 155 155
-1.342342 -0.738739 -5.005990 155 155 155
-1.333333 -0.738739 -5.005990 155 155 155
-1.324324 -0.738739 -5.005990 155 155 155
-1.315315 -0.738739 -5.005990 155 155 155
-1.306306 -0.738739 -5.005990 155 155 155
-1.297297 -0.738739 -5.005990 155 155 155
-1.288288 -0.738739 -5.005990 155 155 155
-1.279279 -0.738739 -5.005990 155 155 155
-1.270270 -0.738739 -5.005990 155 155 155
-1.261261 -0.738739 -5.005990 155 155 155
-1.252252 -0.738739 -5.005990 155 155 155
-1.243243 -0.738739 -5.005990 155 155 155
-1.234234 -0.738739 -5.005990 155 155 155
-1.225225 -0.738739 -5.005990 155 155 155
-1.216216 -0.738739 -5.005990 155 155 155
-1.207207 -0.738739 -5.005990 155 155 155
-1.198198 -0.738739 -5.005990 155 155 155
-1.189189 -0.738739 -5.005990 155 155 155
-1.180180 -0.738739 -5.005990 155 155 155
-1.171171 -0.738739 -5.005990 155 155 155
-1.162162 -0.738739 -5.005990 155 155 155
-1.153153 -0.738739 -5.005990 155 155 155
-1.144144 -0.738739 -5.005990 155 155 155
-1.135135 -0.738739 -5.005990 155 155 155
-1.126126 -0.738739 -5.005990 155 155 155
-1.117117 -0.738739 -5.005990 155 155 155
-1.108108 -0.738739 -5.005990 155 155 155
-1.099099 -0.738739 -5.005990 155 155 155
-1.090090 -0.738739 -5.005990 155 155 155
-1.081081 -0.738739 -5.005990 155 155 155
-1.072072 -0.738739 -5.005990 155 155 155
-1.063063 -0.738739 -5.005990 155 155 155
-1.054054 -0.738739 -5.005990 155 155 155
-1.045045 -0.738739 -5.005990 155 155 155
-1.036036 -0.738739 -5.005990 155 155 155
-1.027027 -0.738739 -5.005990 155 155 155
-1.018018 -0.738739 -5.005990 155 155 155
-1.009009 -0.738739 -5.005990 155 155 155
-1.000000 -0.738739 -5.005990 155 155 155
-0.990991 -0.738739 -5.005990 155 155 155
-0.981982 -0.738739 -5.005990 155 155 155
-0.972973 -0.738739 -5.005990 155 155 155
-0.963964 -0.738739 -5.005990 155 155 155
-0.954955 -0.738739 -5.005990 155 155 155
-0.945946 -0.738739 -5.005990 155 155 155
-0.936937 -0.738739 -5.005990 155 155 155
-0.927928 -0.738739 -5.005990 155 155 155
-0.918919 -0.738739 -5.005990 155 155 155
-0.909910 -0.738739 -5.005990 155 155 155
-0.900901 -0.738739 -5.005990 155 155 155
-0.891892 -0.738739 -5.005990 155 155 155
-0.882883 -0.738739 -5.005990 155 155 155
-0.873874 -0.738739 -5.005990 155 155 155
-0.864865 -0.738739 -5.005990 155 155 155
-0.855856 -0.738739 -5.005990 155 155 155
-0.846847 -0.738739 -5.005990 155 155 155
-0.837838 -0.738739 -5.005990 155 155 155
-0.828829 -0.738739 -5.005990 155 155 155
-0.819820 -0.738739 -5.005990 155 155 155
-0.810811 -0.738739 -5.005990 155 155 155
-0.801802 -0.738739 -5.005990 155 155 155
-0.792793 -0.738739 -5.005990 155 155 155
-0.783784 -0.738739 -5.005990 155 155 155
-0.774775 -0.738739 -5.005990 155 155 155
-0.765766 -0.738739 -5.005990 155 155 155
-0.756757 -0.738739 -5.005990 155 155 155
-0.747748 -0.738739 -5.005990 155 155 155
-0.738739 -0.738739 -5.005990 155 155 155
-0.729730 -0.738739 -5.005990 155 155 155
-0.720721 -0.738739 -5.005990 155 155 155
-0.711712 -0.738739 -5.005990 155 155 155
-0.702703 -0.738739 -5.005990 155 155 155
-0.693694 -0.738739 -5.005990 155 155 155
-0.684685 -0.738739 -5.005990 155 155 155
-0.675676 -0.738739 -5.005990 155 155 155
-0.666667 -0.738739 -5.005990 155 155 155
-0.657658 -0.738739 -5.005990 155 155 155
-0.648649 -0.738739 -5.005990 155 155 155
-0.639640 -0.738739 -5.005990 155 155 155
-0.630631 -0.738739 -5.005990 155 155 155
-0.621622 -0.738739 -5.005990 155 155 155
-0.612613 -0.738739 -5.005990 155 155 155
-0.603604 -0.738739 -5.005990 155 155 155
-0.594595 -0.738739 -5.005990 155 155 155
-0.585586 -0.738739 -5.005990 155 155 155
-0.576577 -0.738739 -5.005990 155 155 155
-0.567568 -0.738739 -5.005990 155 155 155
-0.558559 -0.738739 -5.005990 155 155 155
-0.549550 -0.738739 -5.005990 155 155 155
-0.540541 -0.738739 -5.005990 155 155 155
-0.531532 -0.738739 -5.005990 155 155 155
-0.522523 -0.738739 -5.005990 155 155 155
-0.513514 -0.738739 -5.005990 155 155 155
-0.504505 -0.738739 -5.005990 155 155 155
-0.495495 -0.738739 -5.005990 155 155 155
-0.486486 -0.738739 -5.005990 155 155 155
-0.477477 -0.738739 -5.005990 155 155 155
-0.468468 -0.738739 -5.005990 155 155 155
-0.459459 -0.738739 -5.005990 155 155 155
-0.450450 -0.738739 -5.005990 155 155 155
-0.441441 -0.738739 -5.005990 155 155 155
-0.432432 -0.738739 -5.005990 155 155 155
-0.423423 -0.738739 -5.005990 155 155 155
-0.414414 -0.738739 -5.005990 155 155 155
-0.405405 -0.738739 -5.005990 155 155 155
-0.396396 -0.738739 -5.005990 155 155 155
-0.387387 -0.738739 -5.005990 155 155 155
-0.378378 -0.738739 -5.005990 155 155 155
-0.369369 -0.738739 -5.005990 155 155 155
-0.360360 -0.738739 -5.005990 155 155 155
-0.351351 -0.738739 -5.005990 155 155 155
-0.342342 -0.738739 -5.005990 155 155 155
-0.333333 -0.738739 -5.005990 155 155 155
-0.324324 -0.738739 -5.005990 155 155 155
-0.315315 -0.738739 -5.005990 155 155 155
-0.306306 -0.738739 -5.005990 155 155 155
-0.297297 -0.738739 -5.005990 155 155 155
-0.288288 -0.738739 -5.005990 155 155 155
-0.279279 -0.738739 -5.005990 155 155 155
-0.270270 -0.738739 -5.005990 155 155 155
-0.261261 -0.738739 -5.005990 155 155 155
-0.252252 -0.738739 -5.005990 155 155 155
-0.243243 -0.738739 -5.005990 155 155 155
-0.234234 -0.738739 -5.005990 155 155 155
-0.225225 -0.738739 -5.005990 155 155 155
-0.216216 -0.738739 -5.005990 155 155 155
-0.207207 -0.738739 -5.005990 155 155 155
-0.198198 -0.738739 -5.005990 155 155 155
-0.189189 -0.738739 -5.005990 155 155 155
-0.180180 -0.738739 -5.005990 155 155 155
-0.171171 -0.738739 -5.005990 155 155 155
-0.162162 -0.738739 -5.005990 155 155 155
-0.153153 -0.738739 -5.005990 155 155 155
-0.144144 -0.738739 -5.005990 155 155 155
-0.135135 -0.738739 -5.005990 155 155 155
-0.126126 -0.738739 -5.005990 155 155 155
-0.117117 -0.738739 -5.005990 155 155 155
-0.108108 -0.738739 -5.005990 155 155 155
-0.099099 -0.738739 -5.005990 155 155 155
-0.090090 -0.738739 -5.005990 155 155 155
-0.081081 -0.738739 -5.005990 155 155 155
-0.072072 -0.738739 -5.005990 155 155 155
-0.063063 -0.738739 -5.005990 155 155 155
-0.054054 -0.738739 -5.005990 155 155 155
-0.045045 -0.738739 -5.005990 155 155 155
-0.036036 -0.738739 -5.005990 155 155 155
-0.027027 -0.738739 -5.005990 155 155 155
-0.018018 -0.738739 -5.005990 155 155 155
-0.009009 -0.738739 -5.005990 155 155 155
0.000000 -0.738739 -5.005990 155 155 155
0.009009 -0.738739 -5.005990 155 155 155
0.018018 -0.738739 -5.005990 155 155 155
0.027027 -0.738739 -5.005990 155 155 155
0.036036 -0.738739 -5.005990 155 155 155
0.045045 -0.738739 -5.005990 155 155 155
0.054054 -0.738739 -5.005990 155 155 155
0.063063 -0.738739 -5.005990 155 155 155
0.072072 -0.738739 -5.005990 155 155 155
0.081081 -0.738739 -5.005990 155 155 155
0.090090 -0.738739 -5.005990 155 155 155
0.099099 -0.738739 -5.005990 155 155 155
0.108108 -0.738739 -5.005990 155 155 155
0.117117 -0.738739 -5.005990 155 155 155
0.126126 -0.738739 -5.005990 155 155 155
0.135135 -0.738739 -5.005990 155 155 155
0.144144 -0.738739 -5.005990 155 155 155
0.153153 -0.738739 -5.005990 155 155 155
0.162162 -0.738739 -5.005990 155 155 155
0.171171 -0.738739 -5.005990 155 155 155
0.180180 -0.738739 -5.005990 155 155 155
0.189189 -0.738739 -5.005990 155 155 155
0.198198 -0.738739 -5.005990 155 155 155
0.207207 -0.738739 -5.005990 155 155 155
0.216216 -0.738739 -5.005990 155 155 155
0.225225 -0.738739 -5.005990 155 155 155
0.234234 -0.738739 -5.005990 155 155 155
0.243243 -0.738739 -5.005990 155 155 155
0.252252 -0.738739 -5.005990 155 155 155
0.261261 -0.738739 -5.005990 155 155 155
0.270270 -0.738739 -5.005990 155 155 155
