ply
        format ascii 1.0
        element vertex 95186
        property float x
        property float y
        property float z
        property uchar red
        property uchar green
        property uchar blue
        end_header
-1.306122 -10.285714 -30.240267 155 155 155
-1.273356 -10.463668 -30.763456 155 155 155
-1.226481 -10.536586 -30.977835 155 155 155
-1.166667 -10.500000 -30.870274 155 155 155
-1.111111 -10.500000 -30.870274 155 155 155
5.687500 -11.812500 -34.729057 132 132 132
5.750000 -11.812500 -34.729057 126 126 126
5.812500 -11.812500 -34.729057 108 108 108
5.875000 -11.812500 -34.729057 95 95 95
5.650558 -11.241635 -33.050701 93 93 93
5.688889 -11.200000 -32.928291 94 94 94
5.748148 -11.200000 -32.928291 94 94 94
6.125000 -11.812500 -34.729057 95 95 95
6.187500 -11.812500 -34.729057 94 94 94
6.250000 -11.812500 -34.729057 93 93 93
6.312500 -11.812500 -34.729057 93 93 93
6.135338 -11.368421 -33.423454 94 94 94
6.195489 -11.368421 -33.423454 95 95 95
4.589147 -7.813953 -22.973227 79 79 79
7.065693 -11.036496 -32.447586 81 81 81
3.761079 -5.826590 -17.130325 79 79 79
3.748571 -5.760000 -16.934549 81 81 81
3.779048 -5.760000 -16.934549 89 89 89
3.809524 -5.760000 -16.934549 94 94 94
3.209302 -4.395349 -12.922440 95 95 95
3.255814 -4.395349 -12.922440 96 96 96
3.168539 -4.247191 -12.486852 95 95 95
3.151179 -4.194175 -12.330983 95 95 95
3.173370 -4.194175 -12.330983 97 97 97
3.204451 -4.205842 -12.365283 92 92 92
3.267606 -4.259155 -12.522026 80 80 80
3.290141 -4.259155 -12.522026 93 93 93
3.280335 -4.217573 -12.399775 116 116 116
3.144754 -4.015936 -11.806957 107 107 107
3.161804 -4.010610 -11.791298 82 82 82
3.183024 -4.010610 -11.791298 87 89 88
3.208388 -3.963303 -11.652213 88 88 88
3.204161 -3.932380 -11.561298 80 80 80
3.224967 -3.932380 -11.561298 79 79 79
3.495798 -4.235294 -12.451875 80 78 79
3.518207 -4.235294 -12.451875 80 78 79
3.530726 -4.223464 -12.417093 81 79 80
3.533333 -4.200000 -12.348109 88 83 80
3.540802 -4.182573 -12.296872 71 62 57
3.567867 -4.188365 -12.313904 70 57 49
3.676596 -4.289361 -12.610835 77 62 55
3.699291 -4.289361 -12.610835 92 73 66
3.690577 -4.253165 -12.504415 110 90 81
3.671766 -4.205842 -12.365283 125 103 92
4.191617 -4.526946 -13.309340 162 158 159
1.585586 -1.702703 -5.005990 156 154 155
1.594595 -1.702703 -5.005990 155 155 155
1.603604 -1.702703 -5.005990 155 155 155
1.612613 -1.702703 -5.005990 155 155 155
1.621622 -1.702703 -5.005990 155 155 155
1.630631 -1.702703 -5.005990 155 155 155
1.639640 -1.702703 -5.005990 155 155 155
17.250000 -11.812500 -34.729057 155 155 155
17.437500 -11.812500 -34.729057 155 155 155
17.500000 -11.812500 -34.729057 153 153 153
17.562500 -11.812500 -34.729057 155 155 155
17.625000 -11.812500 -34.729057 154 152 153
17.687500 -11.812500 -34.729057 156 154 155
16.955223 -11.283582 -33.174026 160 156 157
16.462093 -10.916967 -32.096169 157 153 154
16.056141 -10.610526 -31.195223 158 152 154
16.577618 -10.916967 -32.096169 160 154 156
16.635380 -10.916967 -32.096169 159 153 155
18.375000 -11.812500 -34.729057 162 152 153
-11.397261 -10.410959 -30.447393 155 155 155
-11.303754 -10.375426 -30.343477 155 155 155
-11.249146 -10.375426 -30.343477 155 155 155
-12.812500 -11.875000 -34.729057 155 155 155
-12.750000 -11.875000 -34.729057 155 155 155
-12.687500 -11.875000 -34.729057 155 155 155
-12.625000 -11.875000 -34.729057 155 155 155
-12.562500 -11.875000 -34.729057 155 155 155
-12.500000 -11.875000 -34.729057 155 155 155
-12.437500 -11.875000 -34.729057 155 155 155
-11.733334 -11.259259 -32.928291 155 155 155
-11.020979 -10.629371 -31.086149 155 155 155
-10.776632 -10.446735 -30.552023 155 155 155
-12.187500 -11.875000 -34.729057 155 155 155
-12.125000 -11.875000 -34.729057 155 155 155
-12.062500 -11.875000 -34.729057 155 155 155
-12.000000 -11.875000 -34.729057 155 155 155
-11.937500 -11.875000 -34.729057 155 155 155
-11.875000 -11.875000 -34.729057 155 155 155
-11.812500 -11.875000 -34.729057 155 155 155
-11.750000 -11.875000 -34.729057 155 155 155
-11.687500 -11.875000 -34.729057 155 155 155
-11.625000 -11.875000 -34.729057 155 155 155
-11.562500 -11.875000 -34.729057 155 155 155
-11.500000 -11.875000 -34.729057 155 155 155
-11.437500 -11.875000 -34.729057 155 155 155
-11.375000 -11.875000 -34.729057 155 155 155
-11.312500 -11.875000 -34.729057 155 155 155
-11.250000 -11.875000 -34.729057 155 155 155
-11.187500 -11.875000 -34.729057 155 155 155
-11.125000 -11.875000 -34.729057 155 155 155
-11.062500 -11.875000 -34.729057 155 155 155
-11.000000 -11.875000 -34.729057 155 155 155
-10.937500 -11.875000 -34.729057 155 155 155
-10.875000 -11.875000 -34.729057 155 155 155
-10.812500 -11.875000 -34.729057 155 155 155
-10.750000 -11.875000 -34.729057 155 155 155
-10.687500 -11.875000 -34.729057 155 155 155
-10.625000 -11.875000 -34.729057 155 155 155
-10.562500 -11.875000 -34.729057 155 155 155
-9.333333 -10.555555 -30.870274 155 155 155
-10.437500 -11.875000 -34.729057 155 155 155
-10.375000 -11.875000 -34.729057 155 155 155
-10.312500 -11.875000 -34.729057 155 155 155
-10.250000 -11.875000 -34.729057 155 155 155
-9.087108 -10.592335 -30.977835 155 155 155
-9.000000 -10.555555 -30.870274 155 155 155
-8.944445 -10.555555 -30.870274 155 155 155
-8.888889 -10.555555 -30.870274 155 155 155
-8.833333 -10.555555 -30.870274 155 155 155
-8.777778 -10.555555 -30.870274 155 155 155
-8.722222 -10.555555 -30.870274 155 155 155
-8.666667 -10.555555 -30.870274 155 155 155
-8.611111 -10.555555 -30.870274 155 155 155
-9.625000 -11.875000 -34.729057 155 155 155
-9.562500 -11.875000 -34.729057 155 155 155
-9.500000 -11.875000 -34.729057 155 155 155
-9.437500 -11.875000 -34.729057 155 155 155
-9.022556 -11.428572 -33.423454 155 155 155
-8.575540 -10.935252 -31.980715 155 155 155
-8.222222 -10.555555 -30.870274 155 155 155
-7.892617 -10.201343 -29.834358 155 155 155
-7.838926 -10.201343 -29.834358 155 155 155
-9.062500 -11.875000 -34.729057 155 155 155
-9.000000 -11.875000 -34.729057 155 155 155
-8.937500 -11.875000 -34.729057 155 155 155
-8.875000 -11.875000 -34.729057 155 155 155
-8.812500 -11.875000 -34.729057 155 155 155
-8.750000 -11.875000 -34.729057 155 155 155
-7.722222 -10.555555 -30.870274 155 155 155
-7.666667 -10.555555 -30.870274 155 155 155
-8.437500 -11.875000 -34.729057 155 155 155
-8.375000 -11.875000 -34.729057 155 155 155
-8.312500 -11.875000 -34.729057 155 155 155
-8.250000 -11.875000 -34.729057 155 155 155
-8.187500 -11.875000 -34.729057 155 155 155
-8.125000 -11.875000 -34.729057 155 155 155
-8.062500 -11.875000 -34.729057 155 155 155
-8.000000 -11.875000 -34.729057 155 155 155
-7.937500 -11.875000 -34.729057 155 155 155
-7.875000 -11.875000 -34.729057 155 155 155
-7.812500 -11.875000 -34.729057 155 155 155
-7.750000 -11.875000 -34.729057 155 155 155
-7.687500 -11.875000 -34.729057 155 155 155
-7.124088 -11.094891 -32.447586 155 155 155
-6.698962 -10.519032 -30.763456 155 155 155
-7.500000 -11.875000 -34.729057 155 155 155
-7.437500 -11.875000 -34.729057 155 155 155
-7.375000 -11.875000 -34.729057 155 155 155
-6.591549 -10.704226 -31.305065 155 155 155
-6.489511 -10.629371 -31.086149 155 155 155
-6.433567 -10.629371 -31.086149 155 155 155
-6.377623 -10.629371 -31.086149 155 155 155
-7.062500 -11.875000 -34.729057 155 155 155
-7.000000 -11.875000 -34.729057 155 155 155
-6.937500 -11.875000 -34.729057 155 155 155
-6.875000 -11.875000 -34.729057 155 155 155
-6.097902 -10.629371 -31.086149 155 155 155
-5.917808 -10.410959 -30.447393 155 155 155
-5.823129 -10.340137 -30.240267 155 155 155
-5.768707 -10.340137 -30.240267 155 155 155
-5.733788 -10.375426 -30.343477 155 155 155
-4.625000 -11.875000 -34.729057 155 155 155
-4.055555 -10.555555 -30.870274 155 155 155
-3.972414 -10.482759 -30.657375 155 155 155
-4.437500 -11.875000 -34.729057 155 155 155
-4.375000 -11.875000 -34.729057 155 155 155
-4.312500 -11.875000 -34.729057 155 155 155
-4.250000 -11.875000 -34.729057 155 155 155
-4.187500 -11.875000 -34.729057 155 155 155
-4.125000 -11.875000 -34.729057 155 155 155
-4.062500 -11.875000 -34.729057 155 155 155
-4.000000 -11.875000 -34.729057 155 155 155
-3.561837 -10.742049 -31.415684 155 155 155
-3.505300 -10.742049 -31.415684 155 155 155
-3.319728 -10.340137 -30.240267 155 155 155
-3.254237 -10.305085 -30.137758 155 155 155
-3.200000 -10.305085 -30.137758 155 155 155
-3.145763 -10.305085 -30.137758 155 155 155
-3.562500 -11.875000 -34.729057 155 155 155
-2.871795 -9.743589 -28.495636 155 155 155
-2.820513 -9.743589 -28.495636 155 155 155
-2.769231 -9.743589 -28.495636 155 155 155
-2.845638 -10.201343 -29.834358 155 155 155
-3.250000 -11.875000 -34.729057 155 155 155
-3.187500 -11.875000 -34.729057 155 155 155
-3.125000 -11.875000 -34.729057 155 155 155
-3.062500 -11.875000 -34.729057 155 155 155
-3.000000 -11.875000 -34.729057 155 155 155
-2.620209 -10.592335 -30.977835 155 155 155
-2.529210 -10.446735 -30.552023 155 155 155
-2.457338 -10.375426 -30.343477 155 155 155
-2.402730 -10.375426 -30.343477 155 155 155
-2.687500 -11.875000 -34.729057 155 155 155
-2.625000 -11.875000 -34.729057 155 155 155
-2.562500 -11.875000 -34.729057 155 155 155
-2.500000 -11.875000 -34.729057 155 155 155
-2.437500 -11.875000 -34.729057 155 155 155
-2.375000 -11.875000 -34.729057 155 155 155
-2.048443 -10.519032 -30.763456 155 155 155
-1.939394 -10.235690 -29.934811 155 155 155
-1.885522 -10.235690 -29.934811 155 155 155
-1.850340 -10.340137 -30.240267 155 155 155
-1.802048 -10.375426 -30.343477 155 155 155
-1.765517 -10.482759 -30.657375 155 155 155
-1.728223 -10.592335 -30.977835 155 155 155
-1.672474 -10.592335 -30.977835 155 155 155
-1.611111 -10.555555 -30.870274 155 155 155
-1.555556 -10.555555 -30.870274 155 155 155
-1.500000 -10.555555 -30.870274 155 155 155
-1.434483 -10.482759 -30.657375 155 155 155
-1.342282 -10.201343 -29.834358 155 155 155
-1.288591 -10.201343 -29.834358 155 155 155
-1.255973 -10.375426 -30.343477 155 155 155
-1.222222 -10.555555 -30.870274 155 155 155
-1.166667 -10.555555 -30.870274 155 155 155
-1.111111 -10.555555 -30.870274 155 155 155
-1.055556 -10.555555 -30.870274 155 155 155
5.625000 -11.875000 -34.729057 156 156 156
5.687500 -11.875000 -34.729057 154 154 154
5.750000 -11.875000 -34.729057 144 144 144
5.812500 -11.875000 -34.729057 128 128 128
5.675472 -11.471698 -33.549580 119 119 119
5.650558 -11.301115 -33.050701 120 120 120
5.647059 -11.176471 -32.686172 121 121 121
5.705883 -11.176471 -32.686172 121 121 121
6.125000 -11.875000 -34.729057 121 121 121
6.187500 -11.875000 -34.729057 121 121 121
6.250000 -11.875000 -34.729057 121 121 121
6.312500 -11.875000 -34.729057 121 121 121
6.375000 -11.875000 -34.729057 121 121 121
3.775629 -5.880077 -17.196592 85 85 85
3.748571 -5.790476 -16.934549 97 97 97
3.736346 -5.725047 -16.743198 115 115 115
3.766478 -5.725047 -16.743198 122 122 122
2.867924 -4.097035 -11.981993 122 122 122
2.862483 -4.058745 -11.870011 122 122 122
2.880000 -4.053333 -11.854185 122 122 122
2.901333 -4.053333 -11.854185 122 122 122
3.228277 -4.477172 -13.093724 121 121 121
3.200000 -4.405797 -12.884984 122 122 122
3.223188 -4.405797 -12.884984 123 123 123
3.146067 -4.269663 -12.486852 122 122 122
3.133333 -4.222222 -12.348109 121 121 121
3.151179 -4.216366 -12.330983 122 122 122
3.173370 -4.216366 -12.330983 123 123 123
3.200000 -4.222222 -12.348109 108 106 107
3.235704 -4.239888 -12.399775 86 84 85
3.271709 -4.257703 -12.451875 101 101 101
3.280335 -4.239888 -12.399775 115 115 115
3.174263 -4.075067 -11.917747 96 96 96
3.166003 -4.037185 -11.806957 87 87 87
3.183024 -4.031830 -11.791298 111 111 111
3.212598 -3.989501 -11.667505 93 93 91
3.204161 -3.953186 -11.561298 86 85 83
3.187661 -3.907455 -11.427556 85 84 82
3.208226 -3.907455 -11.427556 84 83 81
3.503487 -4.239888 -12.399775 85 84 82
3.525802 -4.239888 -12.399775 80 76 75
3.518672 -4.204703 -12.296872 80 75 72
3.516484 -4.175824 -12.212416 77 68 63
3.538461 -4.175824 -12.212416 68 57 51
3.620112 -4.245810 -12.417093 71 56 49
3.642458 -4.245810 -12.417093 82 63 56
3.644444 -4.222222 -12.348109 99 79 70
3.666667 -4.222222 -12.348109 114 94 85
3.688889 -4.222222 -12.348109 125 103 92
4.236006 -4.599092 -13.450285 161 153 151
4.215569 -4.550898 -13.309340 156 154 155
1.594595 -1.711712 -5.005990 155 155 155
1.603604 -1.711712 -5.005990 155 155 155
1.612613 -1.711712 -5.005990 155 155 155
1.621622 -1.711712 -5.005990 155 155 155
1.630631 -1.711712 -5.005990 155 155 155
1.639640 -1.711712 -5.005990 155 155 155
17.437500 -11.875000 -34.729057 155 155 155
17.500000 -11.875000 -34.729057 155 155 155
17.562500 -11.875000 -34.729057 157 157 157
17.625000 -11.875000 -34.729057 159 157 158
17.687500 -11.875000 -34.729057 152 150 151
16.955223 -11.343284 -33.174026 158 154 155
15.888502 -10.592335 -30.977835 162 156 158
15.888889 -10.555555 -30.870274 155 149 151
16.283688 -10.780142 -31.527088 163 154 157
17.003691 -11.217712 -32.806786 163 148 153
18.375000 -11.875000 -34.729057 159 130 135
-11.397261 -10.465754 -30.447393 155 155 155
-8.855615 -8.171123 -23.771761 155 155 155
-11.287671 -10.465754 -30.447393 155 155 155
-12.812500 -11.937500 -34.729057 155 155 155
-8.991735 -8.418733 -24.492117 155 155 155
-8.923077 -8.395604 -24.424831 155 155 155
-12.625000 -11.937500 -34.729057 155 155 155
-12.562500 -11.937500 -34.729057 155 155 155
-12.500000 -11.937500 -34.729057 155 155 155
-12.437500 -11.937500 -34.729057 155 155 155
-11.733334 -11.318519 -32.928291 155 155 155
-11.059649 -10.722807 -31.195223 155 155 155
-10.813793 -10.537931 -30.657375 155 155 155
-12.187500 -11.937500 -34.729057 155 155 155
-12.125000 -11.937500 -34.729057 155 155 155
-12.062500 -11.937500 -34.729057 155 155 155
-12.000000 -11.937500 -34.729057 155 155 155
-11.937500 -11.937500 -34.729057 155 155 155
-11.875000 -11.937500 -34.729057 155 155 155
-11.812500 -11.937500 -34.729057 155 155 155
-11.750000 -11.937500 -34.729057 155 155 155
-11.687500 -11.937500 -34.729057 155 155 155
-11.625000 -11.937500 -34.729057 155 155 155
-11.562500 -11.937500 -34.729057 155 155 155
-11.312500 -11.937500 -34.729057 155 155 155
-11.250000 -11.937500 -34.729057 155 155 155
-11.187500 -11.937500 -34.729057 155 155 155
-11.125000 -11.937500 -34.729057 155 155 155
-11.062500 -11.937500 -34.729057 155 155 155
-11.000000 -11.937500 -34.729057 155 155 155
-10.875000 -11.937500 -34.729057 155 155 155
-6.559242 -7.241706 -21.067863 155 155 155
-10.750000 -11.937500 -34.729057 155 155 155
-10.687500 -11.937500 -34.729057 155 155 155
-10.625000 -11.937500 -34.729057 155 155 155
-10.562500 -11.937500 -34.729057 155 155 155
-10.500000 -11.937500 -34.729057 155 155 155
-10.250000 -11.937500 -34.729057 155 155 155
-10.187500 -11.937500 -34.729057 155 155 155
-6.750000 -7.958333 -23.152704 155 155 155
-6.673575 -7.917099 -23.032743 155 155 155
-6.863271 -8.193029 -23.835493 155 155 155
-6.820375 -8.193029 -23.835493 155 155 155
-6.687831 -8.084656 -23.520208 155 155 155
-6.575916 -8.000000 -23.273924 155 155 155
-6.516971 -7.979112 -23.213156 155 155 155
-6.475196 -7.979112 -23.213156 155 155 155
-6.433420 -7.979112 -23.213156 155 155 155
-9.562500 -11.937500 -34.729057 155 155 155
-9.500000 -11.937500 -34.729057 155 155 155
-9.437500 -11.937500 -34.729057 155 155 155
-9.375000 -11.937500 -34.729057 155 155 155
-7.919192 -10.289562 -29.934811 155 155 155
-7.838926 -10.255033 -29.834358 155 155 155
-9.062500 -11.937500 -34.729057 155 155 155
-9.000000 -11.937500 -34.729057 155 155 155
-8.875000 -11.937500 -34.729057 155 155 155
-8.812500 -11.937500 -34.729057 155 155 155
-8.750000 -11.937500 -34.729057 155 155 155
-8.687500 -11.937500 -34.729057 155 155 155
-8.437500 -11.937500 -34.729057 155 155 155
-8.375000 -11.937500 -34.729057 155 155 155
-8.312500 -11.937500 -34.729057 155 155 155
-8.250000 -11.937500 -34.729057 155 155 155
-8.187500 -11.937500 -34.729057 155 155 155
-8.125000 -11.937500 -34.729057 155 155 155
-8.062500 -11.937500 -34.729057 155 155 155
-8.000000 -11.937500 -34.729057 155 155 155
-7.937500 -11.937500 -34.729057 155 155 155
-7.875000 -11.937500 -34.729057 155 155 155
-7.375000 -11.937500 -34.729057 155 155 155
-7.312500 -11.937500 -34.729057 155 155 155
-6.512280 -10.722807 -31.195223 155 155 155
-6.456141 -10.722807 -31.195223 155 155 155
-5.863014 -10.465754 -30.447393 155 155 155
-5.788396 -10.430034 -30.343477 155 155 155
-4.687500 -11.937500 -34.729057 155 155 155
-4.139860 -10.685315 -31.086149 155 155 155
-3.173913 -8.304348 -24.159344 155 155 155
-3.063830 -8.127660 -23.645315 155 155 155
-3.917241 -10.537931 -30.657375 155 155 155
-4.375000 -11.937500 -34.729057 155 155 155
-3.719557 -11.276752 -32.806786 155 155 155
-3.505300 -10.798587 -31.415684 155 155 155
-2.652174 -8.304348 -24.159344 155 155 155
-3.265306 -10.394558 -30.240267 155 155 155
-3.687500 -11.937500 -34.729057 155 155 155
-3.156463 -10.394558 -30.240267 155 155 155
-3.562500 -11.937500 -34.729057 155 155 155
-2.871795 -9.794871 -28.495636 155 155 155
-2.820513 -9.794871 -28.495636 155 155 155
-2.360656 -8.349727 -24.291363 155 155 155
-2.845638 -10.255033 -29.834358 155 155 155
-3.250000 -11.937500 -34.729057 155 155 155
-3.187500 -11.937500 -34.729057 155 155 155
-2.072539 -7.917099 -23.032743 155 155 155
-2.036364 -7.937662 -23.092567 155 155 155
-3.000000 -11.937500 -34.729057 155 155 155
-2.620209 -10.648084 -30.977835 155 155 155
-1.921671 -7.979112 -23.213156 155 155 155
-1.875000 -7.958333 -23.152704 155 155 155
-1.828571 -7.937662 -23.092567 155 155 155
-2.687500 -11.937500 -34.729057 155 155 155
-2.375000 -11.937500 -34.729057 155 155 155
-1.993266 -10.289562 -29.934811 155 155 155
-1.939394 -10.289562 -29.934811 155 155 155
-1.885522 -10.289562 -29.934811 155 155 155
-1.856655 -10.430034 -30.343477 155 155 155
-1.411765 -8.171123 -23.771761 155 155 155
-1.350924 -8.063325 -23.458149 155 155 155
-1.308707 -8.063325 -23.458149 155 155 155
-1.280000 -8.149333 -23.708370 155 155 155
-1.240642 -8.171123 -23.771761 155 155 155
-1.201072 -8.193029 -23.835493 155 155 155
-1.155080 -8.171123 -23.771761 155 155 155
-1.109333 -8.149333 -23.708370 155 155 155
-1.041667 -7.958333 -23.152704 155 155 155
-1.000000 -7.958333 -23.152704 155 155 155
-0.955844 -7.937662 -23.092567 155 155 155
-0.916667 -7.958333 -23.152704 155 155 155
-0.875000 -7.958333 -23.152704 155 155 155
-1.111111 -10.611111 -30.870274 155 155 155
5.625000 -11.937500 -34.729057 155 155 155
5.687500 -11.937500 -34.729057 155 155 155
5.750000 -11.937500 -34.729057 153 153 153
5.812500 -11.937500 -34.729057 147 147 147
5.875000 -11.937500 -34.729057 146 146 146
5.714286 -11.488722 -33.423454 150 150 150
5.710037 -11.360595 -33.050701 147 147 147
5.705883 -11.235294 -32.686172 147 147 147
6.125000 -11.937500 -34.729057 147 147 147
6.187500 -11.937500 -34.729057 148 148 148
6.250000 -11.937500 -34.729057 148 148 148
6.312500 -11.937500 -34.729057 148 148 148
3.821359 -5.933980 -17.263376 128 128 128
3.736346 -5.755179 -16.743198 148 148 148
3.766478 -5.755179 -16.743198 152 152 152
2.935989 -4.347084 -12.646712 149 149 149
2.925457 -4.298172 -12.504415 149 149 149
2.915160 -4.250348 -12.365283 149 149 149
2.913103 -4.215172 -12.262950 149 149 149
2.887381 -4.146540 -12.063282 149 149 149
2.889488 -4.118598 -11.981993 149 149 149
2.911051 -4.118598 -11.981993 149 149 149
2.936572 -4.124156 -11.998163 149 149 149
3.228277 -4.500736 -13.093724 150 150 150
3.200000 -4.428986 -12.884984 150 150 150
3.141243 -4.316384 -12.557399 148 148 148
3.119777 -4.256268 -12.382505 148 148 148
3.133333 -4.244444 -12.348109 151 151 151
3.151179 -4.238557 -12.330983 150 150 150
3.173370 -4.238557 -12.330983 144 144 144
3.200000 -4.244444 -12.348109 124 122 123
3.226704 -4.250348 -12.365283 114 112 113
3.258019 -4.262204 -12.399775 119 119 119
3.262136 -4.238557 -12.330983 113 113 113
3.174263 -4.096515 -11.917747 115 115 115
3.166003 -4.058433 -11.806957 126 126 126
3.178808 -4.047682 -11.775681 141 141 141
3.178947 -4.021053 -11.698209 150 150 150
3.187418 -4.005242 -11.652213 133 133 131
3.191656 -3.984355 -11.591446 114 114 112
3.167095 -3.928020 -11.427556 112 111 109
3.159236 -3.892994 -11.325654 98 97 95
3.171537 -3.883100 -11.296872 79 78 76
3.508380 -4.268157 -12.417093 80 79 77
3.540616 -4.280112 -12.451875 81 80 78
3.523546 -4.232687 -12.313904 86 82 81
3.502052 -4.180574 -12.162296 79 71 68
3.504762 -4.157823 -12.096107 68 59 54
3.545828 -4.180574 -12.162296 70 55 50
3.567715 -4.180574 -12.162296 72 55 48
3.579809 -4.169168 -12.129111 82 63 56
3.601637 -4.169168 -12.129111 96 76 67
3.663448 -4.215172 -12.262950 112 92 83
4.219512 -4.658536 -13.552803 85 65 54
4.211800 -4.623298 -13.450285 99 82 75
4.191617 -4.574850 -13.309340 151 140 136
4.215569 -4.574850 -13.309340 158 154 151
4.214286 -4.547619 -13.230117 155 155 153
1.603604 -1.720721 -5.005990 155 155 155
1.612613 -1.720721 -5.005990 155 155 155
1.621622 -1.720721 -5.005990 155 155 155
1.630631 -1.720721 -5.005990 155 155 155
1.639640 -1.720721 -5.005990 155 155 155
17.375000 -11.937500 -34.729057 165 150 157
17.437500 -11.937500 -34.729057 166 149 157
17.500000 -11.937500 -34.729057 167 150 158
17.562500 -11.937500 -34.729057 165 148 154
17.625000 -11.937500 -34.729057 164 147 155
17.687500 -11.937500 -34.729057 144 125 131
15.723184 -10.574394 -30.763456 144 123 132
15.616438 -10.465754 -30.447393 148 127 136
15.671233 -10.465754 -30.447393 131 110 119
-8.855615 -8.213903 -23.771761 155 155 155
-8.967033 -8.439561 -24.424831 155 155 155
-8.754717 -8.280323 -23.963985 155 155 155
-8.711591 -8.280323 -23.963985 155 155 155
-6.559242 -7.279621 -21.067863 155 155 155
-6.715026 -7.958549 -23.032743 155 155 155
-6.656331 -7.937984 -22.973227 155 155 155
-6.772487 -8.126985 -23.520208 155 155 155
-6.820375 -8.235925 -23.835493 155 155 155
-6.687831 -8.126985 -23.520208 155 155 155
-6.575916 -8.041884 -23.273924 155 155 155
-6.516971 -8.020887 -23.213156 155 155 155
-6.475196 -8.020887 -23.213156 155 155 155
-6.433420 -8.020887 -23.213156 155 155 155
-2.222222 -4.266667 -12.348109 155 155 155
-2.200000 -4.266667 -12.348109 155 155 155
-2.177778 -4.266667 -12.348109 155 155 155
-2.155555 -4.266667 -12.348109 155 155 155
-2.133333 -4.266667 -12.348109 155 155 155
-2.111111 -4.266667 -12.348109 155 155 155
-2.088889 -4.266667 -12.348109 155 155 155
-2.066667 -4.266667 -12.348109 155 155 155
-2.044445 -4.266667 -12.348109 155 155 155
-2.022222 -4.266667 -12.348109 155 155 155
-2.000000 -4.266667 -12.348109 155 155 155
-1.977778 -4.266667 -12.348109 155 155 155
-1.955556 -4.266667 -12.348109 155 155 155
-1.933333 -4.266667 -12.348109 155 155 155
-1.911111 -4.266667 -12.348109 155 155 155
-1.888889 -4.266667 -12.348109 155 155 155
-1.866667 -4.266667 -12.348109 155 155 155
-1.844444 -4.266667 -12.348109 155 155 155
-1.822222 -4.266667 -12.348109 155 155 155
-1.800000 -4.266667 -12.348109 155 155 155
-1.772853 -4.254848 -12.313904 155 155 155
-1.750692 -4.254848 -12.313904 155 155 155
-1.726141 -4.248963 -12.296872 155 155 155
-1.704011 -4.248963 -12.296872 155 155 155
-1.684211 -4.254848 -12.313904 155 155 155
-1.685393 -4.314607 -12.486852 155 155 155
-1.646732 -4.272601 -12.365283 155 155 155
-1.645070 -4.326761 -12.522026 155 155 155
-1.620253 -4.320675 -12.504415 155 155 155
-2.966058 -8.020887 -23.213156 155 155 155
-2.652174 -8.347826 -24.159344 155 155 155
-2.360656 -8.393442 -24.291363 155 155 155
-2.072539 -7.958549 -23.032743 155 155 155
-2.036364 -7.979221 -23.092567 155 155 155
-1.921671 -8.020887 -23.213156 155 155 155
-1.875000 -8.000000 -23.152704 155 155 155
-1.828571 -7.979221 -23.092567 155 155 155
-1.423077 -7.384615 -21.371727 155 155 155
-1.384615 -7.384615 -21.371727 155 155 155
-1.555556 -8.533334 -24.696218 155 155 155
-1.454545 -8.213903 -23.771761 155 155 155
-1.389474 -8.084210 -23.396418 155 155 155
-1.336815 -8.020887 -23.213156 155 155 155
-1.301837 -8.062992 -23.335011 155 155 155
-1.266491 -8.105541 -23.458149 155 155 155
-1.240642 -8.213903 -23.771761 155 155 155
-1.201072 -8.235925 -23.835493 155 155 155
-1.155080 -8.213903 -23.771761 155 155 155
-1.109333 -8.192000 -23.708370 155 155 155
-1.041667 -8.000000 -23.152704 155 155 155
-1.000000 -8.000000 -23.152704 155 155 155
-0.955844 -7.979221 -23.092567 155 155 155
-0.916667 -8.000000 -23.152704 155 155 155
-0.875000 -8.000000 -23.152704 155 155 155
5.562500 -12.000000 -34.729057 155 155 155
5.625000 -12.000000 -34.729057 155 155 155
5.687500 -12.000000 -34.729057 155 155 155
5.750000 -12.000000 -34.729057 155 155 155
5.688889 -11.377778 -32.928291 155 155 155
4.850000 -9.600000 -27.783245 155 155 155
5.074434 -9.941748 -28.772293 155 155 155
6.187500 -12.000000 -34.729057 155 155 155
2.913229 -4.369843 -12.646712 154 156 155
2.886713 -4.296504 -12.434460 154 156 155
2.892907 -4.272601 -12.365283 154 156 155
2.903047 -4.254848 -12.313904 154 156 155
2.917127 -4.243094 -12.279887 154 156 155
2.927098 -4.225585 -12.229214 154 156 155
2.909091 -4.168250 -12.063282 155 155 155
2.914980 -4.145749 -11.998163 155 155 155
2.944520 -4.156969 -12.030634 155 155 155
2.974220 -4.168250 -12.063282 155 155 155
3.118644 -4.338983 -12.557399 155 155 155
3.097493 -4.278552 -12.382505 155 155 155
3.111111 -4.266667 -12.348109 156 156 156
3.133333 -4.266667 -12.348109 155 155 155
3.155555 -4.266667 -12.348109 154 153 151
3.173370 -4.260749 -12.330983 152 151 149
3.195562 -4.260749 -12.330983 142 141 139
3.217753 -4.260749 -12.330983 141 140 138
3.239944 -4.260749 -12.330983 139 139 137
3.239669 -4.231405 -12.246058 139 139 137
3.165775 -4.106952 -11.885880 142 142 140
3.157616 -4.068874 -11.775681 147 147 145
3.149606 -4.031496 -11.667505 152 152 150
3.166448 -4.026212 -11.652213 156 156 154
3.170795 -4.005215 -11.591446 145 145 143
3.187500 -4.000000 -11.576352 142 142 140
3.167095 -3.948586 -11.427556 132 132 130
3.159236 -3.913376 -11.325654 113 113 111
3.171537 -3.903431 -11.296872 102 102 102
3.558074 -4.351275 -12.592973 97 97 97
3.580737 -4.351275 -12.592973 85 85 85
3.523546 -4.254848 -12.313904 82 81 79
3.482993 -4.179592 -12.096107 83 77 77
3.476383 -4.145749 -11.998163 74 66 64
3.497976 -4.145749 -11.998163 71 57 56
3.529093 -4.156969 -12.030634 72 57 54
3.550744 -4.156969 -12.030634 78 59 53
3.572395 -4.156969 -12.030634 81 61 54
3.550802 -4.106952 -11.885880 92 69 61
3.705964 -4.260749 -12.330983 112 90 79
3.546174 -4.052771 -11.729074 100 77 63
3.516255 -3.994798 -11.561298 66 44 30
3.537061 -3.994798 -11.561298 92 71 54
3.557867 -3.994798 -11.561298 104 83 66
3.578674 -3.994798 -11.561298 98 76 62
3.544174 -3.933419 -11.383660 108 86 73
3.564661 -3.933419 -11.383660 114 92 81
1.612613 -1.729730 -5.005990 155 155 153
1.621622 -1.729730 -5.005990 154 154 154
1.630631 -1.729730 -5.005990 155 155 155
1.639640 -1.729730 -5.005990 156 156 158
17.375000 -12.000000 -34.729057 143 96 116
17.437500 -12.000000 -34.729057 152 103 124
17.500000 -12.000000 -34.729057 155 106 127
17.562500 -12.000000 -34.729057 152 103 122
17.625000 -12.000000 -34.729057 153 104 125
17.086792 -11.592453 -33.549580 162 111 130
15.508533 -10.484642 -30.343477 167 115 137
15.457627 -10.413559 -30.137758 172 120 142
15.355704 -10.308724 -29.834358 177 125 147
15.726027 -10.520548 -30.447393 183 131 153
-2.244444 -4.288889 -12.348109 155 155 155
-2.203857 -4.253444 -12.246058 155 155 155
-2.181818 -4.253444 -12.246058 155 155 155
-2.159780 -4.253444 -12.246058 155 155 155
-2.137741 -4.253444 -12.246058 155 155 155
-2.115702 -4.253444 -12.246058 155 155 155
-2.093664 -4.253444 -12.246058 155 155 155
-2.071625 -4.253444 -12.246058 155 155 155
-2.049587 -4.253444 -12.246058 155 155 155
-2.027548 -4.253444 -12.246058 155 155 155
-2.005510 -4.253444 -12.246058 155 155 155
-1.983471 -4.253444 -12.246058 155 155 155
-1.961432 -4.253444 -12.246058 155 155 155
-1.939394 -4.253444 -12.246058 155 155 155
-1.917355 -4.253444 -12.246058 155 155 155
-1.895317 -4.253444 -12.246058 155 155 155
-1.873278 -4.253444 -12.246058 155 155 155
-1.851240 -4.253444 -12.246058 155 155 155
-1.829201 -4.253444 -12.246058 155 155 155
-1.807163 -4.253444 -12.246058 155 155 155
-1.787586 -4.259310 -12.262950 155 155 155
-1.765517 -4.259310 -12.262950 155 155 155
-1.738652 -4.247593 -12.229214 155 155 155
-1.711934 -4.235940 -12.195663 155 155 155
-1.673913 -4.195652 -12.079672 155 155 155
-1.649932 -4.189960 -12.063282 155 155 155
-1.597870 -4.111851 -11.838400 155 155 155
-1.576565 -4.111851 -11.838400 155 155 155
-1.557333 -4.117333 -11.854185 155 155 155
-1.597781 -4.282940 -12.330983 155 155 155
-1.597750 -4.343179 -12.504415 155 155 155
-1.427822 -8.104987 -23.335011 155 155 155
-1.333333 -8.041667 -23.152704 155 155 155
-1.305263 -8.126316 -23.396418 155 155 155
-1.041667 -8.041667 -23.152704 155 155 155
-1.000000 -8.041667 -23.152704 155 155 155
2.888576 -4.355430 -12.539688 155 155 155
2.886713 -4.318881 -12.434460 154 156 155
2.892907 -4.294854 -12.365283 155 155 155
2.895028 -4.265193 -12.279887 154 156 155
2.905089 -4.247593 -12.229214 155 155 155
2.899183 -4.207085 -12.112587 155 155 155
2.893387 -4.167341 -11.998163 155 155 155
2.914980 -4.167341 -11.998163 155 155 155
2.936572 -4.167341 -11.998163 155 155 155
2.966171 -4.178620 -12.030634 155 155 155
3.070932 -4.294854 -12.365283 155 155 155
3.093185 -4.294854 -12.365283 155 155 155
3.111111 -4.288889 -12.348109 156 156 156
3.133333 -4.288889 -12.348109 155 155 155
3.151179 -4.282940 -12.330983 155 154 152
3.168975 -4.277009 -12.313904 154 153 151
3.191136 -4.277009 -12.313904 156 154 155
3.213296 -4.277009 -12.313904 155 153 154
3.230982 -4.271093 -12.296872 154 154 154
3.217510 -4.224350 -12.162296 153 153 153
3.157333 -4.117333 -11.854185 154 154 154
3.157616 -4.090066 -11.775681 155 155 153
3.170409 -4.079260 -11.744569 156 156 156
3.166448 -4.047182 -11.652213 156 156 154
3.187418 -4.047182 -11.652213 155 155 155
3.187500 -4.020833 -11.576352 155 155 153
3.167095 -3.969152 -11.427556 146 146 144
3.163265 -3.938776 -11.340100 135 135 133
3.596542 -4.449568 -12.810719 129 129 129
3.619596 -4.449568 -12.810719 111 111 111
3.585816 -4.380142 -12.610835 92 90 91
3.598303 -4.367751 -12.575161 91 89 90
3.545706 -4.277009 -12.313904 89 87 88
3.500000 -4.195652 -12.079672 82 78 77
3.497976 -4.167341 -11.998163 75 66 67
3.529093 -4.178620 -12.030634 68 57 55
3.550744 -4.178620 -12.030634 66 51 48
3.572395 -4.178620 -12.030634 72 54 50
3.550802 -4.128342 -11.885880 84 65 58
3.828080 -4.424069 -12.737305 102 82 73
3.823613 -4.392603 -12.646712 116 96 85
3.846373 -4.392603 -12.646712 108 89 75
3.537061 -4.015604 -11.561298 66 46 35
3.557867 -4.015604 -11.561298 101 82 68
3.578674 -4.015604 -11.561298 92 72 61
3.544174 -3.953905 -11.383660 104 85 71
3.564661 -3.953905 -11.383660 105 83 72
4.191617 -4.622755 -13.309340 119 102 92
1.621622 -1.738739 -5.005990 155 155 155
1.630631 -1.738739 -5.005990 155 155 155
17.375000 -12.062500 -34.729057 171 106 130
17.437500 -12.062500 -34.729057 178 110 135
17.500000 -12.062500 -34.729057 181 113 138
17.562500 -12.062500 -34.729057 183 115 138
17.625000 -12.062500 -34.729057 186 121 143
16.525547 -11.270073 -32.447586 191 126 148
15.508533 -10.539249 -30.343477 194 131 152
15.099338 -10.225165 -29.439201 199 135 159
14.905538 -10.058632 -28.959736 203 139 163
14.765273 -9.929260 -28.587263 206 142 168
14.310559 -9.590062 -27.610680 209 147 170
14.315789 -9.560371 -27.525198 206 147 169
14.409938 -9.590062 -27.610680 207 145 170
-2.372981 -4.558003 -13.055269 155 155 155
-2.222222 -4.311111 -12.348109 155 155 155
-2.200000 -4.311111 -12.348109 155 155 155
-2.177778 -4.311111 -12.348109 155 155 155
-2.155555 -4.311111 -12.348109 155 155 155
-2.133333 -4.311111 -12.348109 155 155 155
-2.111111 -4.311111 -12.348109 155 155 155
-2.088889 -4.311111 -12.348109 155 155 155
-2.066667 -4.311111 -12.348109 155 155 155
-2.044445 -4.311111 -12.348109 155 155 155
-2.022222 -4.311111 -12.348109 155 155 155
-2.000000 -4.311111 -12.348109 155 155 155
-1.977778 -4.311111 -12.348109 155 155 155
-1.955556 -4.311111 -12.348109 155 155 155
-1.933333 -4.311111 -12.348109 155 155 155
-1.911111 -4.311111 -12.348109 155 155 155
-1.888889 -4.311111 -12.348109 155 155 155
-1.866667 -4.311111 -12.348109 155 155 155
-1.844444 -4.311111 -12.348109 155 155 155
-1.822222 -4.311111 -12.348109 155 155 155
-1.800000 -4.311111 -12.348109 155 155 155
-1.777778 -4.311111 -12.348109 155 155 155
-1.750692 -4.299169 -12.313904 155 155 155
-1.726141 -4.293223 -12.296872 155 155 155
-1.704011 -4.293223 -12.296872 155 155 155
-1.684211 -4.299169 -12.313904 155 155 155
-1.685393 -4.359550 -12.486852 155 155 155
-1.646732 -4.317107 -12.365283 155 155 155
-1.642757 -4.365682 -12.504415 155 155 155
-1.602225 -4.317107 -12.365283 155 155 155
-1.597750 -4.365682 -12.504415 155 155 155
3.064857 -4.681750 -13.409712 157 155 156
2.976744 -4.511628 -12.922440 156 154 155
2.898876 -4.359550 -12.486852 155 155 155
2.909091 -4.341259 -12.434460 156 154 155
2.911111 -4.311111 -12.348109 155 155 155
2.917127 -4.287293 -12.279887 156 154 155
2.899183 -4.228883 -12.112587 156 154 155
2.913043 -4.217391 -12.079672 156 154 155
2.930800 -4.211669 -12.063282 156 154 155
2.952510 -4.211669 -12.063282 156 154 155
2.974220 -4.211669 -12.063282 156 154 155
3.218659 -4.524781 -12.960114 156 154 155
3.154610 -4.402837 -12.610835 156 154 155
3.115438 -4.317107 -12.365283 155 155 155
3.133333 -4.311111 -12.348109 155 155 155
3.151179 -4.305132 -12.330983 156 156 156
3.168975 -4.299169 -12.313904 156 156 156
3.191136 -4.299169 -12.313904 156 156 158
3.213296 -4.299169 -12.313904 156 156 158
3.235457 -4.299169 -12.313904 157 157 159
3.217510 -4.246238 -12.162296 157 157 159
3.204330 -4.200271 -12.030634 156 156 158
3.178667 -4.138667 -11.854185 155 155 155
3.247632 -4.200271 -12.030634 154 154 156
3.166667 -4.041667 -11.576352 156 154 157
3.146530 -3.989717 -11.427556 158 156 157
3.126904 -3.939086 -11.282537 154 152 153
3.163265 -3.959184 -11.340100 155 153 154
3.596542 -4.472622 -12.810719 152 150 151
3.630058 -4.485549 -12.847744 134 132 133
3.642651 -4.472622 -12.810719 120 116 117
3.676301 -4.485549 -12.847744 113 111 112
3.981338 -4.827372 -13.826810 88 89 93
3.914894 -4.717325 -13.511609 82 83 85
3.939210 -4.717325 -13.511609 84 84 86
3.875186 -4.612184 -13.210459 82 81 79
3.847507 -4.551320 -13.036127 74 69 66
3.859649 -4.538012 -12.998010 69 61 58
3.883041 -4.538012 -12.998010 73 62 58
3.883721 -4.511628 -12.922440 85 72 66
3.851003 -4.446991 -12.737305 107 92 85
3.873925 -4.446991 -12.737305 124 107 99
4.256651 -4.857590 -13.913363 89 72 65
4.281690 -4.857590 -13.913363 75 56 49
4.113602 -4.639761 -13.289445 116 97 91
4.137519 -4.639761 -13.289445 96 77 70
4.167665 -4.646707 -13.309340 95 76 70
4.191617 -4.646707 -13.309340 94 81 75
4.215569 -4.646707 -13.309340 158 153 149
1.621622 -1.747748 -5.005990 155 155 155
1.630631 -1.747748 -5.005990 156 156 158
17.375000 -12.125000 -34.729057 174 101 121
17.437500 -12.125000 -34.729057 184 113 131
17.500000 -12.125000 -34.729057 191 120 138
17.562500 -12.125000 -34.729057 196 127 145
17.625000 -12.125000 -34.729057 202 135 152
16.525547 -11.328467 -32.447586 201 139 154
15.668965 -10.703448 -30.657375 203 142 157
15.099338 -10.278146 -29.439201 207 146 162
14.857142 -10.077922 -28.865709 207 148 166
14.531646 -9.822784 -28.134932 206 149 166
14.400000 -9.700000 -27.783245 205 151 165
14.450000 -9.700000 -27.783245 203 151 164
-2.611200 -4.992000 -14.225022 155 155 155
-2.437406 -4.705883 -13.409712 155 155 155
-2.349486 -4.581498 -13.055269 155 155 155
-2.325991 -4.581498 -13.055269 155 155 155
-2.302496 -4.581498 -13.055269 155 155 155
-2.279001 -4.581498 -13.055269 155 155 155
-2.255507 -4.581498 -13.055269 155 155 155
-2.232012 -4.581498 -13.055269 155 155 155
-2.208517 -4.581498 -13.055269 155 155 155
-2.185022 -4.581498 -13.055269 155 155 155
-2.161527 -4.581498 -13.055269 155 155 155
-2.138032 -4.581498 -13.055269 155 155 155
-2.114537 -4.581498 -13.055269 155 155 155
-2.091043 -4.581498 -13.055269 155 155 155
-2.067548 -4.581498 -13.055269 155 155 155
-2.044053 -4.581498 -13.055269 155 155 155
-2.020558 -4.581498 -13.055269 155 155 155
-1.997063 -4.581498 -13.055269 155 155 155
-1.962044 -4.554745 -12.979034 155 155 155
-1.935860 -4.548105 -12.960114 155 155 155
-1.904209 -4.528302 -12.903685 155 155 155
-1.867435 -4.495677 -12.810719 155 155 155
-1.802817 -4.394366 -12.522026 155 155 155
-1.717391 -4.239130 -12.079672 155 155 155
-1.695652 -4.239130 -12.079672 155 155 155
-1.785507 -4.521739 -12.884984 155 155 155
-1.814925 -4.656716 -13.269610 155 155 155
-1.791045 -4.656716 -13.269610 155 155 155
-1.725947 -4.548105 -12.960114 155 155 155
-1.682997 -4.495677 -12.810719 155 155 155
-1.648069 -4.463519 -12.719083 155 155 155
-1.636888 -4.495677 -12.810719 155 155 155
-1.135314 -5.148515 -14.671021 155 155 155
-0.711111 -5.777778 -16.464146 155 155 155
-0.357257 -4.976077 -14.179647 155 155 155
3.034074 -4.622222 -13.171316 156 155 153
3.000000 -4.534883 -12.922440 156 155 153
3.014493 -4.521739 -12.884984 156 154 155
2.977273 -4.431818 -12.628748 156 155 153
2.905089 -4.291609 -12.229214 156 154 155
2.879567 -4.221921 -12.030634 156 155 153
2.870147 -4.176707 -11.901793 156 154 155
2.891566 -4.176707 -11.901793 155 155 153
3.317073 -4.756098 -13.552803 155 155 155
3.270073 -4.554745 -12.979034 154 156 155
3.142061 -4.345404 -12.382505 154 156 153
3.142462 -4.315353 -12.296872 155 157 156
3.168975 -4.321330 -12.313904 155 157 156
3.249647 -4.400564 -12.539688 154 154 156
3.281471 -4.413013 -12.575161 154 154 156
3.258019 -4.351464 -12.399775 154 154 156
3.204360 -4.250681 -12.112587 155 155 157
3.204330 -4.221921 -12.030634 155 155 157
3.225981 -4.221921 -12.030634 155 155 157
3.083123 -3.929471 -11.197278 154 154 156
3.107188 -3.934426 -11.211398 155 155 157
3.302264 -4.154461 -11.838400 159 159 161
3.633188 -4.541485 -12.941250 153 151 154
3.656477 -4.541485 -12.941250 148 146 149
3.685131 -4.548105 -12.960114 146 144 147
4.050955 -4.968153 -14.157068 130 130 132
4.076433 -4.968153 -14.157068 112 113 117
4.063091 -4.921135 -14.023089 104 108 109
4.018605 -4.837209 -13.783936 101 105 106
3.963526 -4.741642 -13.511609 94 96 95
3.910581 -4.649776 -13.249834 81 81 79
4.385382 -5.182724 -14.768503 74 73 69
4.404644 -5.174129 -14.744011 72 67 63
4.431178 -5.174129 -14.744011 73 65 62
4.421052 -5.131579 -14.622761 82 71 67
4.469421 -5.157025 -14.695271 95 81 78
4.459016 -5.114754 -14.574818 112 97 94
4.315457 -4.921135 -14.023089 72 57 54
4.266667 -4.837209 -13.783936 85 70 67
4.181269 -4.712991 -13.429968 90 75 72
4.186466 -4.691730 -13.369382 66 52 49
4.185351 -4.663677 -13.289445 135 125 123
4.184249 -4.635958 -13.210459 161 157 154
1.594595 -1.756757 -5.005990 156 156 154
1.603604 -1.756757 -5.005990 153 153 151
1.612613 -1.756757 -5.005990 152 152 152
1.621622 -1.756757 -5.005990 153 153 155
1.630631 -1.756757 -5.005990 156 156 158
1.639640 -1.756757 -5.005990 156 156 158
17.312500 -12.187500 -34.729057 177 104 115
17.375000 -12.187500 -34.729057 181 109 120
17.437500 -12.187500 -34.729057 184 114 124
17.500000 -12.187500 -34.729057 189 122 129
17.562500 -12.187500 -34.729057 194 129 135
17.625000 -12.187500 -34.729057 197 134 142
16.525547 -11.386861 -32.447586 195 136 142
15.668965 -10.758620 -30.657375 193 136 143
15.099338 -10.331126 -29.439201 194 138 147
14.954248 -10.196078 -29.054375 194 138 149
14.909091 -10.129870 -28.865709 190 137 147
14.490566 -9.811320 -27.957983 187 136 145
-3.000000 -5.600000 -15.876141 155 155 155
-2.710098 -5.107492 -14.479868 155 155 155
-2.653784 -5.049920 -14.316648 155 155 155
-2.611200 -5.017600 -14.225022 155 155 155
-2.577353 -5.001595 -14.179647 155 155 155
-2.551834 -5.001595 -14.179647 155 155 155
-2.526316 -5.001595 -14.179647 155 155 155
-2.500798 -5.001595 -14.179647 155 155 155
-2.475279 -5.001595 -14.179647 155 155 155
-2.449761 -5.001595 -14.179647 155 155 155
-2.424242 -5.001595 -14.179647 155 155 155
-2.398724 -5.001595 -14.179647 155 155 155
-2.373206 -5.001595 -14.179647 155 155 155
-2.347687 -5.001595 -14.179647 155 155 155
-2.322169 -5.001595 -14.179647 155 155 155
-2.296651 -5.001595 -14.179647 155 155 155
-2.271132 -5.001595 -14.179647 155 155 155
-2.245614 -5.001595 -14.179647 155 155 155
-2.106583 -4.915360 -13.935170 155 155 155
-2.071763 -4.892356 -13.869951 155 155 155
-2.046802 -4.892356 -13.869951 155 155 155
-2.015552 -4.877139 -13.826810 155 155 155
-1.844380 -4.518732 -12.810719 155 155 155
-1.785311 -4.429379 -12.557399 155 155 155
-1.959184 -4.923077 -13.957047 155 155 155
-1.934066 -4.923077 -13.957047 155 155 155
-1.911950 -4.930818 -13.978992 155 155 155
-1.886792 -4.930818 -13.978992 155 155 155
-1.732938 -4.652819 -13.190859 155 155 155
-1.679300 -4.571429 -12.960114 155 155 155
-1.402985 -5.850746 -16.587013 155 155 155
-1.352941 -5.764706 -16.343086 155 155 155
-1.311475 -5.712204 -16.194242 155 155 155
-1.254902 -5.590018 -15.847840 155 155 155
-1.109677 -5.058064 -14.339740 155 155 155
-1.108911 -5.174918 -14.671021 155 155 155
-0.709797 -5.796673 -16.433712 155 155 155
-0.673993 -5.743590 -16.283220 155 155 155
-0.643510 -5.733089 -16.253452 155 155 155
-0.603232 -5.630162 -15.961649 155 155 155
-0.389610 -5.090909 -14.432855 155 155 155
-0.357257 -5.001595 -14.179647 155 155 155
-0.337662 -5.090909 -14.432855 155 155 155
-0.222609 -5.453913 -15.461980 155 155 155
3.701493 -5.850746 -16.587013 156 156 156
3.731343 -5.850746 -16.587013 156 156 156
3.699083 -5.754128 -16.313099 155 155 155
3.215190 -4.962025 -14.067466 155 155 153
3.136294 -4.802450 -13.615067 156 155 153
3.017544 -4.584795 -12.998010 156 155 151
3.032070 -4.571429 -12.960114 156 155 153
3.055394 -4.571429 -12.960114 156 155 151
3.060869 -4.544928 -12.884984 155 155 153
2.955555 -4.355556 -12.348109 155 156 151
2.977778 -4.355556 -12.348109 155 155 153
3.312883 -4.809816 -13.635949 154 156 151
3.365994 -4.518732 -12.810719 155 155 155
3.340909 -4.454545 -12.628748 155 155 155
3.217391 -4.260870 -12.079672 155 155 155
2.805075 -3.617070 -10.254485 155 156 158
2.830058 -3.625433 -10.278195 153 154 156
3.103275 -3.949622 -11.197278 154 155 157
3.609898 -4.564775 -12.941250 155 156 160
3.638484 -4.571429 -12.960114 148 152 155
3.661808 -4.571429 -12.960114 151 155 158
4.077419 -5.058064 -14.339740 154 158 161
4.090032 -5.041800 -14.293632 142 143 145
4.115756 -5.041800 -14.293632 136 136 136
4.095389 -4.985692 -14.134561 135 135 133
4.571429 -5.530864 -15.680139 128 130 127
4.481100 -5.388316 -15.276011 109 111 108
4.477816 -5.351536 -15.171739 97 99 94
4.444445 -5.279461 -14.967405 97 99 94
4.411960 -5.209302 -14.768503 84 83 78
4.438538 -5.209302 -14.768503 67 62 58
4.442975 -5.183471 -14.695271 67 59 56
4.491694 -5.209302 -14.768503 65 55 53
4.459016 -5.140984 -14.574818 65 54 52
4.281690 -4.907668 -13.913363 87 76 74
4.266667 -4.862016 -13.783936 62 50 50
4.193939 -4.751515 -13.470665 94 84 83
4.199095 -4.730015 -13.409712 132 124 122
4.185351 -4.687593 -13.289445 157 153 152
4.147275 -4.618556 -13.093724 153 151 152
1.594595 -1.765766 -5.005990 154 154 154
1.603604 -1.765766 -5.005990 155 155 155
1.612613 -1.765766 -5.005990 155 155 157
1.621622 -1.765766 -5.005990 154 154 156
1.630631 -1.765766 -5.005990 155 155 157
1.639640 -1.765766 -5.005990 157 155 156
1.648649 -1.765766 -5.005990 157 155 156
17.312500 -12.250000 -34.729057 177 116 111
17.562500 -12.250000 -34.729057 172 115 108
17.625000 -12.250000 -34.729057 171 116 111
16.647058 -11.529411 -32.686172 171 116 113
15.561644 -10.739726 -30.447393 170 116 116
15.099338 -10.384106 -29.439201 168 116 118
14.954248 -10.248366 -29.054375 169 116 122
15.006536 -10.248366 -29.054375 168 117 122
14.582278 -9.924050 -28.134932 166 117 121
-4.215054 -5.648746 -15.933044 155 155 155
-4.171429 -5.628572 -15.876141 155 155 155
-4.142857 -5.628572 -15.876141 155 155 155
-3.118397 -5.741348 -16.194242 155 155 155
-3.028571 -5.628572 -15.876141 155 155 155
-2.931937 -5.500873 -15.515949 155 155 155
-2.710098 -5.133551 -14.479868 155 155 155
-2.653784 -5.075685 -14.316648 155 155 155
-2.623794 -5.067524 -14.293632 155 155 155
-2.585600 -5.043200 -14.225022 155 155 155
-2.555911 -5.035144 -14.202298 155 155 155
-2.530351 -5.035144 -14.202298 155 155 155
-2.504792 -5.035144 -14.202298 155 155 155
-2.479233 -5.035144 -14.202298 155 155 155
-2.453674 -5.035144 -14.202298 155 155 155
-2.428115 -5.035144 -14.202298 155 155 155
-2.402556 -5.035144 -14.202298 155 155 155
-2.376997 -5.035144 -14.202298 155 155 155
-2.351438 -5.035144 -14.202298 155 155 155
-2.325879 -5.035144 -14.202298 155 155 155
-2.300319 -5.035144 -14.202298 155 155 155
-2.542857 -5.628572 -15.876141 155 155 155
-2.593002 -5.804788 -16.373184 155 155 155
-2.404293 -5.638640 -15.904541 155 155 155
-2.384201 -5.658887 -15.961649 155 155 155
-2.342857 -5.628572 -15.876141 155 155 155
-2.360656 -5.741348 -16.194242 155 155 155
-2.065360 -5.150327 -14.527187 155 155 155
-1.996800 -5.043200 -14.225022 155 155 155
-1.952456 -4.995245 -14.089760 155 155 155
-1.930159 -5.003175 -14.112124 155 155 155
-1.904762 -5.003175 -14.112124 155 155 155
-1.454545 -5.969697 -16.838331 155 155 155
-1.382353 -5.794117 -16.343086 155 155 155
-1.330922 -5.699819 -16.077105 155 155 155
-1.283422 -5.618538 -15.847840 155 155 155
-1.254902 -5.618538 -15.847840 155 155 155
-1.204904 -5.520140 -15.570295 155 155 155
-0.740741 -5.837037 -16.464146 155 155 155
-0.703297 -5.772894 -16.283220 155 155 155
-0.670310 -5.741348 -16.194242 155 155 155
-0.628571 -5.628572 -15.876141 155 155 155
-0.600000 -5.628572 -15.876141 155 155 155
-0.574506 -5.658887 -15.961649 155 155 155
-0.547748 -5.679279 -16.019169 155 155 155
-0.392157 -5.150327 -14.527187 155 155 155
-0.366013 -5.150327 -14.527187 155 155 155
-0.340426 -5.158756 -14.550963 155 155 155
-0.224168 -5.520140 -15.570295 155 155 155
3.685393 -5.902622 -16.649136 153 155 154
3.701493 -5.880597 -16.587013 154 154 154
3.731343 -5.880597 -16.587013 154 156 155
3.699083 -5.783486 -16.313099 155 155 155
3.342105 -5.184210 -14.622761 156 156 156
3.235387 -4.979463 -14.045242 155 155 153
3.185185 -4.864198 -13.720121 155 155 153
3.209877 -4.864198 -13.720121 155 155 153
3.703180 -5.568904 -15.707842 155 155 153
3.660312 -5.462739 -15.408386 155 155 153
3.426731 -5.075685 -14.316648 155 155 153
3.435897 -5.051282 -14.247818 154 156 153
3.423138 -4.995245 -14.089760 154 156 153
3.476038 -5.035144 -14.202298 154 156 153
2.811561 -3.643931 -10.278195 153 155 154
3.187500 -4.104167 -11.576352 154 156 155
3.225131 -4.125654 -11.636962 152 153 155
3.609898 -4.588064 -12.941250 153 154 156
3.804878 -4.804878 -13.552803 154 158 161
3.894574 -4.886822 -13.783936 153 157 160
4.596050 -5.658887 -15.961649 156 154 155
4.608229 -5.638640 -15.904541 154 153 151
4.628572 -5.628572 -15.876141 144 144 142
4.567426 -5.520140 -15.570295 127 129 124
4.508591 -5.415808 -15.276011 121 123 120
4.459459 -5.324324 -15.017971 123 125 120
4.419301 -5.244592 -14.793076 108 109 104
4.490757 -5.297479 -14.942250 89 88 84
4.457711 -5.227197 -14.744011 86 81 78
4.544538 -5.297479 -14.942250 102 94 92
4.473684 -5.184210 -14.622761 133 124 125
4.275000 -4.925000 -13.891623 128 119 120
4.266667 -4.886822 -13.783936 130 124 124
4.219512 -4.804878 -13.552803 149 145 144
4.205438 -4.761329 -13.429968 156 155 153
4.229607 -4.761329 -13.429968 154 154 154
4.184249 -4.683506 -13.210459 156 156 156
1.594595 -1.774775 -5.005990 156 156 158
1.603604 -1.774775 -5.005990 157 157 159
1.612613 -1.774775 -5.005990 157 157 159
1.621622 -1.774775 -5.005990 156 156 158
1.630631 -1.774775 -5.005990 155 155 155
1.639640 -1.774775 -5.005990 156 154 155
16.895523 -11.761194 -33.174026 149 99 88
15.197325 -10.541806 -29.734577 151 101 94
15.000000 -10.368421 -29.245522 151 102 98
14.954248 -10.300653 -29.054375 154 102 104
-5.703704 -7.333333 -20.580183 155 155 155
-4.562500 -6.187500 -17.364529 155 155 155
-4.142857 -5.657143 -15.876141 155 155 155
-4.500000 -6.187500 -17.364529 155 155 155
-3.464567 -6.236220 -17.501257 155 155 155
-3.406250 -6.187500 -17.364529 155 155 155
-3.291429 -6.034286 -16.934549 155 155 155
-3.084685 -5.708108 -16.019169 155 155 155
-3.028571 -5.657143 -15.876141 155 155 155
-2.968198 -5.597173 -15.707842 155 155 155
-2.904014 -5.528796 -15.515949 155 155 155
