ply
        format ascii 1.0
        element vertex 89627
        property float x
        property float y
        property float z
        property uchar red
        property uchar green
        property uchar blue
        end_header
7.159277 4.742200 -14.565063 141 87 66
7.197369 4.750000 -14.589018 139 83 65
7.247525 4.765676 -14.637167 146 88 74
7.843416 5.138790 -15.783137 138 80 66
7.348837 4.797342 -14.734424 126 67 53
7.538200 4.903226 -15.059631 124 65 51
7.565365 4.903226 -15.059631 121 60 49
9.297297 6.004158 -18.441004 118 54 44
7.505017 4.829432 -14.832982 123 52 47
7.420099 4.757825 -14.613052 121 51 48
7.446458 4.757825 -14.613052 119 54 53
7.509934 4.781457 -14.685635 125 67 67
7.599332 4.821369 -14.808219 129 75 79
11.207824 7.061125 -21.687342 112 62 73
11.219512 7.043902 -21.634447 108 66 78
11.286063 7.061125 -21.687342 125 91 102
11.968992 7.462533 -22.920214 145 121 132
13.092957 8.135211 -24.986261 153 139 154
13.138028 8.135211 -24.986261 136 131 151
8.068966 4.979311 -15.293316 90 101 124
8.027350 4.936752 -15.162603 90 111 136
8.000000 4.903226 -15.059631 121 137 165
7.986486 4.878378 -14.983316 129 139 171
7.986532 4.861953 -14.932867 124 133 169
-12.718750 11.218750 -34.648918 77 67 76
-12.656250 11.218750 -34.648918 79 75 86
-12.593750 11.218750 -34.648918 72 70 78
-11.750916 10.520146 -32.491295 68 53 54
-11.239436 10.112676 -31.232828 70 38 30
-10.876713 9.835616 -30.377134 77 39 27
-10.498339 9.541529 -29.468847 77 40 27
-10.207792 9.324676 -28.799101 77 42 28
-9.337314 8.573134 -26.477980 78 44 29
-8.891429 8.205714 -25.343208 77 40 27
-8.696630 8.067416 -24.916077 73 36 23
-8.579387 8.000000 -24.707863 71 37 26
-8.487535 7.955678 -24.570978 67 39 31
-8.443213 7.955678 -24.570978 55 34 34
-8.492997 8.044818 -24.846283 58 44 55
-8.173442 7.783198 -24.038275 57 51 63
-7.832898 7.498694 -23.159590 53 49 58
-7.750649 7.459740 -23.039280 72 65 70
-7.709091 7.459740 -23.039280 74 62 63
-7.647668 7.440414 -22.979593 72 56 56
-7.586563 7.421189 -22.920214 73 50 53
-7.468030 7.345269 -22.685738 66 33 37
-7.260000 7.180000 -22.175308 73 30 33
-7.026764 6.987834 -21.581808 78 30 31
-6.870813 6.870813 -21.220390 80 34 30
-6.751773 6.789598 -20.969559 78 42 32
-6.604651 6.679070 -20.628193 73 45 30
-6.462243 6.572083 -20.297764 75 48 30
-6.310112 6.453933 -19.932861 75 48 27
-6.056399 6.229935 -19.241047 77 50 31
-5.735537 5.933884 -18.326700 74 46 33
-5.531062 5.755511 -17.775797 73 46 37
-5.359375 5.609375 -17.324459 70 43 39
-5.226054 5.501916 -16.992573 70 37 37
-5.155893 5.460076 -16.863352 71 31 36
-5.086792 5.418868 -16.736082 65 29 37
-4.990689 5.348231 -16.517920 58 35 44
-4.897059 5.279412 -16.305374 55 42 52
-4.858716 5.269725 -16.275455 57 51 61
-8.000000 8.729484 -26.960861 76 73 80
-7.951368 8.729484 -26.960861 91 84 89
-7.902736 8.729484 -26.960861 81 65 69
-7.830303 8.703031 -26.879160 77 49 56
-6.094293 7.126551 -22.010231 86 47 45
-4.651911 5.778672 -17.847330 73 39 30
-4.619718 5.778672 -17.847330 74 38 26
-4.532803 5.709742 -17.634439 70 31 23
-4.465483 5.664694 -17.495312 71 28 25
-4.399217 5.620352 -17.358362 66 29 30
-4.175908 5.491396 -16.960083 86 85 98
-4.193424 5.555126 -17.156912 95 90 104
-2.680152 3.630847 -11.213809 72 45 50
-2.646541 3.612579 -11.157388 69 37 38
-2.626415 3.612579 -11.157388 82 47 45
-2.609572 3.617128 -11.171439 86 51 47
-2.589421 3.617128 -11.171439 81 46 40
-2.559598 3.603513 -11.129389 87 53 45
-2.530000 3.590000 -11.087654 85 51 42
-2.506866 3.585518 -11.073812 79 45 35
-2.477612 3.572139 -11.032492 80 43 34
-2.430504 3.532595 -10.910360 82 42 34
-1.346314 3.994437 -12.336750 68 33 28
-1.327754 4.005579 -12.371161 60 37 33
-0.667429 3.282286 -10.137283 80 68 78
-0.646925 3.271071 -10.102646 65 45 51
-0.627273 3.263636 -10.079685 52 21 22
3.744991 5.231330 -16.156872 98 55 35
3.733333 5.174775 -15.982203 115 72 54
3.735241 5.137746 -15.867841 126 81 67
3.743772 5.110320 -15.783137 118 72 57
3.765542 5.101243 -15.755103 118 73 55
3.787234 5.092198 -15.727168 118 73 51
3.822380 5.101243 -15.755103 118 74 49
2.740191 3.045599 -9.406281 113 59 55
2.748414 3.035941 -9.376451 107 49 47
2.762408 3.032735 -9.366550 105 45 42
2.779303 3.032735 -9.366550 115 55 48
3.580345 3.814077 -11.779712 89 80 93
3.601594 3.814077 -11.779712 92 99 118
3.622842 3.814077 -11.779712 105 109 126
3.644090 3.814077 -11.779712 133 123 135
3.660477 3.809019 -11.764089 132 105 113
3.681698 3.809019 -11.764089 98 59 64
3.702918 3.809019 -11.764089 87 45 46
2.696214 2.651893 -8.190326 110 54 65
2.686185 2.627630 -8.115392 112 52 65
2.700823 2.627630 -8.115392 113 52 66
2.700637 2.613285 -8.071086 119 58 71
2.702899 2.601449 -8.034532 126 64 78
2.678571 2.564286 -7.919753 129 66 82
2.683274 2.555160 -7.891569 126 66 83
2.673721 2.532628 -7.821978 127 70 90
2.673684 2.519298 -7.780810 130 79 99
2.687719 2.519298 -7.780810 128 85 106
2.752458 2.566577 -7.926830 130 95 116
2.769231 2.568873 -7.933920 138 110 132
2.783542 2.568873 -7.933920 143 122 146
7.263889 4.986111 -15.399519 131 76 63
7.291667 4.986111 -15.399519 131 77 61
7.721611 5.260073 -16.245647 129 74 56
7.160745 4.859560 -15.008669 132 77 57
6.785943 4.587860 -14.169526 140 83 63
6.811502 4.587860 -14.169526 140 84 59
7.109634 4.770764 -14.734424 138 84 56
7.136213 4.770764 -14.734424 131 79 50
7.103789 4.731466 -14.613052 133 82 52
7.130148 4.731466 -14.613052 135 84 56
7.133005 4.715928 -14.565063 136 86 58
7.159277 4.715928 -14.565063 142 89 64
7.322259 4.770764 -14.734424 139 82 63
7.276316 4.723684 -14.589018 137 81 64
7.302631 4.723684 -14.589018 133 77 60
7.328948 4.723684 -14.589018 123 67 50
7.355263 4.723684 -14.589018 127 66 53
7.238709 4.632258 -14.306650 129 62 51
7.264516 4.632258 -14.306650 123 55 47
7.349594 4.669919 -14.422964 121 55 49
7.460526 4.723684 -14.589018 127 66 61
7.536424 4.754967 -14.685635 136 77 74
7.626043 4.794658 -14.808219 140 78 78
7.889845 4.943202 -15.266994 127 63 65
7.972270 4.977469 -15.372830 113 51 54
11.231144 6.987834 -21.581808 116 57 59
11.580000 7.180000 -22.175308 124 72 71
8.240283 5.074205 -15.671596 128 107 117
8.041237 4.934708 -15.240761 95 96 113
8.027350 4.909402 -15.162603 92 106 128
8.013605 4.884354 -15.085243 129 134 158
7.986486 4.851351 -14.983316 150 145 171
8.013514 4.851351 -14.983316 152 148 178
8.013468 4.835017 -14.932867 145 147 178
-12.781250 11.156250 -34.648918 84 69 75
-12.718750 11.156250 -34.648918 89 78 82
-12.656250 11.156250 -34.648918 78 72 76
-11.852942 10.500000 -32.610748 68 63 67
-11.457143 10.200000 -31.679010 64 47 45
-11.044983 9.882353 -30.692467 73 41 31
-10.657718 9.583893 -29.765514 78 43 29
-10.259740 9.272727 -28.799101 75 42 26
-9.527273 8.654546 -26.879160 76 42 25
-9.227139 8.424779 -26.165554 79 43 25
-8.840909 8.113636 -25.199213 78 39 23
-8.696630 8.022472 -24.916077 73 33 20
-8.508287 7.889503 -24.503103 70 35 26
-8.417583 7.846154 -24.368469 61 36 32
-8.305177 7.782016 -24.169273 49 34 38
-8.239130 7.760870 -24.103596 51 45 57
-7.978836 7.555555 -23.465935 66 63 76
-7.832898 7.456919 -23.159590 72 67 77
-7.770833 7.437500 -23.099279 72 60 66
-7.709091 7.418182 -23.039280 68 50 51
-7.647668 7.398964 -22.979593 70 50 49
-7.606217 7.398964 -22.979593 69 46 44
-7.545219 7.379845 -22.920214 60 30 27
-7.427110 7.304348 -22.685738 72 34 31
-7.220000 7.140000 -22.175308 78 33 29
-6.937198 6.898551 -21.425419 81 34 29
-6.800000 6.800000 -21.119341 81 39 32
-6.666667 6.704226 -20.821884 76 44 33
-6.521940 6.595843 -20.485273 75 47 32
-6.310112 6.417977 -19.932861 71 46 28
-5.927813 6.063694 -18.832533 70 47 31
-5.630832 5.793103 -17.992136 72 48 36
-5.520000 5.712000 -17.740246 73 46 41
-5.359375 5.578125 -17.324459 69 40 40
-5.256262 5.502890 -17.090796 64 31 34
-5.155893 5.429658 -16.863352 61 26 29
-5.086792 5.388679 -16.736082 56 30 35
-4.990689 5.318436 -16.517920 52 40 47
-4.897059 5.250000 -16.305374 56 52 59
-4.867647 5.250000 -16.305374 73 72 80
-7.975758 8.654546 -26.879160 86 78 83
-7.927273 8.654546 -26.879160 80 59 60
-7.831326 8.602409 -26.717237 76 44 45
-7.713433 8.525373 -26.477980 78 37 41
-6.173697 7.086849 -22.010231 74 40 31
-6.094293 7.086849 -22.010231 86 51 48
-5.399549 6.446953 -20.022852 88 56 61
-5.339326 6.417977 -19.932861 63 29 29
-4.809917 5.900826 -18.326700 79 39 37
-4.651911 5.746479 -17.847330 70 33 28
-4.619718 5.746479 -17.847330 65 28 20
-4.550898 5.700599 -17.704836 62 28 22
-4.500994 5.677932 -17.634439 60 30 29
-4.407843 5.600000 -17.392399 53 34 37
-4.175908 5.460803 -16.960083 99 91 104
-4.177264 5.502890 -17.090796 97 78 90
-2.683544 3.615190 -11.228004 73 38 36
-2.659924 3.610620 -11.213809 72 37 31
-2.629723 3.596977 -11.171439 80 45 39
-2.609572 3.596977 -11.171439 85 50 44
-2.579674 3.583438 -11.129389 81 48 41
-2.550000 3.570000 -11.087654 86 52 43
-2.520548 3.556663 -11.046230 85 51 41
-2.497512 3.552239 -11.032492 82 50 37
-2.477612 3.552239 -11.032492 79 45 33
-2.424540 3.504294 -10.883587 81 43 34
-1.348189 3.977716 -12.353931 66 32 27
-1.344633 4.033898 -12.528422 61 37 34
-1.320169 4.028209 -12.510752 59 49 49
-1.301273 4.039604 -12.546143 62 63 69
-1.255556 3.966667 -12.319615 65 70 83
-0.674365 3.297921 -10.242637 68 49 58
-0.655889 3.297921 -10.242637 55 28 31
-0.637413 3.297921 -10.242637 56 21 20
-0.618938 3.297921 -10.242637 60 20 17
3.744991 5.202186 -16.156872 95 51 32
3.719928 5.127469 -15.924817 110 67 49
3.728571 5.100000 -15.839505 115 71 57
3.743772 5.081851 -15.783137 115 72 56
3.758865 5.063830 -15.727168 118 75 57
3.747368 5.010526 -15.561620 119 77 54
3.762238 4.993007 -15.507208 122 79 54
3.631491 4.783920 -14.857827 115 71 46
3.652174 4.775920 -14.832982 113 69 44
3.773585 4.898799 -15.214620 117 73 48
3.932886 4.791946 -14.882757 117 75 55
2.757158 3.028632 -9.406281 104 45 44
2.765328 3.019027 -9.376451 102 43 40
3.575597 3.787798 -11.764089 95 87 92
3.592053 3.782781 -11.748507 96 104 119
3.613245 3.782781 -11.748507 106 111 126
3.639257 3.787798 -11.764089 127 119 130
3.660477 3.787798 -11.764089 127 100 108
3.681698 3.787798 -11.764089 102 61 65
3.702918 3.787798 -11.764089 93 47 47
2.609778 2.538667 -7.884554 109 58 63
2.664260 2.577617 -8.005527 103 49 55
2.717949 2.615385 -8.122824 106 48 55
2.690583 2.561435 -7.955267 113 49 58
2.683274 2.540925 -7.891569 118 53 62
2.673721 2.518518 -7.821978 119 56 66
2.671341 2.503067 -7.773991 120 59 70
2.685364 2.503067 -7.773991 119 61 74
2.745098 2.545455 -7.905635 120 66 81
7.544117 5.250000 -16.305374 135 76 60
7.615527 5.279113 -16.395792 140 84 66
7.645102 5.279113 -16.395792 143 92 73
7.674676 5.279113 -16.395792 130 80 61
7.661765 5.250000 -16.305374 129 79 62
7.621130 5.202186 -16.156872 131 79 65
7.291667 4.958333 -15.399519 130 77 62
7.133672 4.832487 -15.008669 134 78 61
7.148649 4.824324 -14.983316 134 79 59
7.175676 4.824324 -14.983316 140 83 62
7.178451 4.808081 -14.932867 134 79 53
7.181208 4.791946 -14.882757 129 75 46
7.208054 4.791946 -14.882757 129 77 46
7.162791 4.744186 -14.734424 133 83 51
7.165563 4.728477 -14.685635 135 85 54
7.192053 4.728477 -14.685635 133 84 53
7.147541 4.681967 -14.541185 138 87 59
7.173770 4.681967 -14.541185 138 87 60
7.250000 4.697369 -14.589018 142 88 64
7.264368 4.689655 -14.565063 139 85 63
7.254902 4.666667 -14.493665 135 80 60
7.269168 4.659054 -14.470021 129 72 53
7.295269 4.659054 -14.470021 133 73 58
7.192307 4.576923 -14.214941 133 70 56
7.229535 4.584270 -14.237758 127 63 51
7.278583 4.599034 -14.283612 124 62 52
7.375610 4.643902 -14.422964 127 67 59
7.474548 4.689655 -14.565063 132 75 67
7.562914 4.728477 -14.685635 138 77 71
7.652755 4.767947 -14.808219 136 71 67
7.744108 4.808081 -14.932867 128 60 56
8.000000 4.949740 -15.372830 122 55 49
8.183745 5.045937 -15.671596 114 52 41
8.212014 5.045937 -15.671596 107 54 48
8.097222 4.958333 -15.399519 107 73 75
8.041237 4.907217 -15.240761 100 90 102
8.054889 4.898799 -15.214620 104 112 129
8.040956 4.873720 -15.136728 124 119 137
8.027164 4.848897 -15.059631 130 108 124
8.000000 4.816189 -14.958049 132 110 128
-12.843750 11.093750 -34.648918 81 68 75
-12.781250 11.093750 -34.648918 92 80 82
-12.718750 11.093750 -34.648918 88 76 75
-11.911765 10.441176 -32.610748 78 69 69
-11.514286 10.142858 -31.679010 67 59 60
-11.138889 9.861111 -30.799038 66 47 44
-10.711410 9.530201 -29.765514 74 43 32
-10.481848 9.372937 -29.274334 78 44 27
-10.128205 9.102564 -28.429882 74 43 24
-9.441442 8.528528 -26.637007 76 44 24
-9.146199 8.304093 -25.936033 81 45 27
-8.815864 8.045326 -25.127827 80 40 27
-8.672269 7.955182 -24.846283 71 30 22
-8.484848 7.823691 -24.435600 62 29 25
-8.348774 7.738420 -24.169273 48 26 27
-8.260162 7.696477 -24.038275 43 31 37
-8.085333 7.573333 -23.653662 62 57 67
-7.957784 7.493404 -23.404018 82 76 87
-7.832898 7.415143 -23.159590 77 63 72
-7.770833 7.395833 -23.099279 68 49 53
-7.709091 7.376623 -23.039280 63 40 41
-7.667532 7.376623 -23.039280 71 47 46
-7.625974 7.376623 -23.039280 72 47 45
-7.564767 7.357513 -22.979593 60 30 26
-7.562500 7.395833 -23.099279 71 34 28
-7.520833 7.395833 -23.099279 77 35 27
-6.056399 6.160521 -19.241047 70 46 35
-5.783333 5.916667 -18.479424 73 49 41
-5.598377 5.760649 -17.992136 71 45 44
-5.390963 5.579568 -17.426567 64 35 40
-5.155893 5.399240 -16.863352 54 28 33
-5.058161 5.328330 -16.641882 55 37 42
-4.962963 5.259259 -16.426153 63 54 62
-4.924214 5.249538 -16.395792 77 72 79
-8.024242 8.606061 -26.879160 83 76 82
-7.927711 8.554217 -26.717237 73 57 60
-7.879518 8.554217 -26.717237 74 42 40
-7.761194 8.477612 -26.477980 76 35 34
-7.690476 8.452381 -26.399176 80 36 37
-7.530792 8.328445 -26.012091 82 39 42
-6.062954 6.876513 -21.477295 73 39 33
-6.173697 7.047146 -22.010231 75 43 36
-6.133995 7.047146 -22.010231 79 48 41
-6.094293 7.047146 -22.010231 82 49 45
-5.411236 6.382022 -19.932861 79 50 54
-5.375281 6.382022 -19.932861 90 60 61
-5.327354 6.367713 -19.888168 66 32 31
-5.303371 6.382022 -19.932861 73 35 34
-5.008547 6.068376 -18.953255 78 38 36
-4.819876 5.879917 -18.364643 79 39 39
-4.718368 5.795918 -18.102291 68 30 30
-4.638384 5.737374 -17.919441 60 27 25
-4.587525 5.714286 -17.847330 58 33 33
-4.500994 5.646123 -17.634439 50 35 37
-4.407843 5.568627 -17.392399 55 49 57
-4.259542 5.419847 -16.927715 68 72 85
-4.166667 5.378788 -16.799475 99 90 105
-4.152091 5.399240 -16.863352 88 69 81
-4.145316 5.430210 -16.960083 76 46 54
-3.933702 5.230203 -16.335402 75 37 34
-3.785714 5.071429 -15.839505 75 36 29
-2.676845 3.613232 -11.285144 78 41 32
-2.656489 3.613232 -11.285144 83 49 39
-2.636132 3.613232 -11.285144 84 51 42
-2.599241 3.590392 -11.213809 83 50 41
-2.553191 3.554443 -11.101531 83 51 40
-1.348189 3.955432 -12.353931 67 35 31
-1.344633 4.011300 -12.528422 66 44 43
-1.303621 3.955432 -12.353931 60 52 55
-1.297602 4.005642 -12.510752 59 61 70
-1.255556 3.944444 -12.319615 63 71 86
-0.692841 3.279446 -10.242637 62 47 57
-0.671264 3.264368 -10.195543 64 39 47
-0.653625 3.268124 -10.207276 56 23 27
-0.637413 3.279446 -10.242637 59 18 18
3.744991 5.173042 -16.156872 99 53 36
3.719928 5.098743 -15.924817 109 65 49
3.721925 5.062388 -15.811271 116 72 58
3.730496 5.035461 -15.727168 116 72 59
3.706294 4.965035 -15.507208 115 71 56
3.708333 4.930555 -15.399519 116 74 53
3.622896 4.781145 -14.932867 117 73 51
3.631491 4.757119 -14.857827 117 72 49
3.633943 4.725458 -14.758940 118 73 50
3.685092 4.757119 -14.857827 119 74 50
3.879195 4.765100 -14.882757 119 79 59
3.906040 4.765100 -14.882757 124 83 63
3.932886 4.765100 -14.882757 127 85 65
4.080808 4.781145 -14.932867 108 66 51
3.784571 4.133915 -12.911387 103 46 44
3.769452 4.092219 -12.781157 101 42 38
3.655555 3.944444 -12.319615 105 46 38
3.616734 3.832659 -11.970476 98 66 55
3.566138 3.756614 -11.732967 94 83 87
3.573123 3.741765 -11.686592 92 96 111
3.570681 3.717278 -11.610108 105 107 121
3.596330 3.722149 -11.625325 122 114 122
3.617300 3.722149 -11.625325 120 94 98
3.633508 3.717278 -11.610108 102 61 62
3.616580 3.678756 -11.489797 101 53 51
3.623226 3.664516 -11.445320 114 64 57
3.588310 3.608640 -11.270804 120 70 59
3.508600 3.488944 -10.896957 115 63 46
2.609778 2.524444 -7.884554 109 64 60
2.673721 2.504409 -7.821978 107 45 46
2.671341 2.489045 -7.773991 108 46 48
2.683012 2.486865 -7.767183 110 48 53
3.623431 2.970711 -9.278372 101 116 128
3.640167 2.970711 -9.278372 94 106 118
7.544117 5.220588 -16.305374 141 78 66
7.573529 5.220588 -16.305374 142 82 67
7.602941 5.220588 -16.305374 140 85 67
7.632353 5.220588 -16.305374 133 84 66
7.704251 5.249538 -16.395792 126 78 60
7.691176 5.220588 -16.305374 130 78 64
7.094594 4.797297 -14.983316 135 82 68
7.121622 4.797297 -14.983316 138 82 67
7.148649 4.797297 -14.983316 133 78 59
7.224490 4.829932 -15.085243 139 84 63
7.202703 4.797297 -14.983316 135 80 55
7.181208 4.765100 -14.882757 130 76 48
7.171953 4.741235 -14.808219 134 82 50
7.162791 4.717608 -14.734424 139 89 56
7.189369 4.717608 -14.734424 142 92 60
7.192053 4.701987 -14.685635 137 88 56
7.171052 4.671052 -14.589018 137 87 56
7.162029 4.648118 -14.517386 137 86 57
7.216966 4.632953 -14.470021 140 88 66
7.184466 4.595469 -14.352950 137 83 62
7.210356 4.595469 -14.352950 136 80 61
7.307189 4.640523 -14.493665 132 73 55
7.169329 4.536741 -14.169526 133 71 54
7.194888 4.536741 -14.169526 135 72 58
7.220447 4.536741 -14.169526 131 70 57
7.292604 4.565917 -14.260648 133 75 63
7.377634 4.602917 -14.376212 136 79 68
7.476268 4.648118 -14.517386 135 76 66
7.576859 4.694215 -14.661361 140 77 68
7.603306 4.694215 -14.661361 135 68 59
7.771044 4.781145 -14.932867 127 59 49
7.958763 4.879725 -15.240761 115 51 36
8.069445 4.930555 -15.399519 116 59 48
8.013745 4.879725 -15.240761 114 72 69
8.027444 4.871355 -15.214620 107 89 97
8.054889 4.871355 -15.214620 112 115 129
8.082333 4.871355 -15.214620 133 120 131
8.068259 4.846416 -15.136728 142 104 109
8.013514 4.797297 -14.983316 133 90 93
-12.843750 11.031250 -34.648918 89 81 82
-12.781250 11.031250 -34.648918 90 79 75
-12.059259 10.459259 -32.852306 88 75 67
-11.612904 10.121863 -31.792555 81 69 65
-11.194445 9.805555 -30.799038 70 58 58
-10.801347 9.508417 -29.865734 68 49 44
-10.534654 9.320132 -29.274334 76 46 33
-10.179487 9.051282 -28.429882 77 45 27
-9.575758 8.557576 -26.879160 75 44 24
-9.357142 8.404762 -26.399176 75 43 24
-9.040462 8.161850 -25.636194 76 42 27
-8.741573 7.932584 -24.916077 72 35 27
-8.600000 7.844444 -24.639231 61 25 24
-8.438356 7.736986 -24.301706 50 21 24
-8.303523 7.653117 -24.038275 44 26 32
-8.128000 7.530667 -23.653662 60 48 56
-8.021164 7.470900 -23.465935 83 72 80
-7.916010 7.412074 -23.281162 85 69 75
-7.812500 7.354167 -23.099279 75 49 52
-7.750649 7.335065 -23.039280 64 36 38
-7.709091 7.335065 -23.039280 58 33 33
-7.667532 7.335065 -23.039280 70 45 46
-7.645833 7.354167 -23.099279 75 49 51
-7.604167 7.354167 -23.099279 64 32 30
-7.582245 7.373368 -23.159590 76 37 30
-5.816667 5.883333 -18.479424 72 42 39
-5.552000 5.648000 -17.740246 73 45 44
-5.520000 5.648000 -17.740246 67 41 43
-8.477987 8.880503 -27.893469 66 55 64
-8.297214 8.743034 -27.461681 83 70 80
-8.171779 8.662577 -27.208967 87 69 79
-8.198142 8.743034 -27.461681 80 55 62
-7.927711 8.506024 -26.717237 78 45 46
-7.808955 8.429851 -26.477980 74 34 29
-7.738095 8.404762 -26.399176 77 36 31
-7.667656 8.379822 -26.320841 82 42 40
-7.530792 8.281525 -26.012091 83 44 44
-5.985472 6.837772 -21.477295 79 46 39
-5.411236 6.346067 -19.932861 76 50 50
-5.375281 6.346067 -19.932861 87 58 57
-5.339326 6.346067 -19.932861 64 32 29
-5.327314 6.374718 -20.022852 69 30 28
-5.232143 6.303571 -19.799381 68 28 29
-4.829875 5.858921 -18.402744 72 32 37
-4.776859 5.834711 -18.326700 58 24 28
-4.638384 5.705050 -17.919441 59 34 39
-4.578313 5.670683 -17.811493 52 38 44
-4.474308 5.581028 -17.529888 56 56 64
-4.390625 5.515625 -17.324459 70 76 88
-4.259542 5.389313 -16.927715 84 86 101
-4.143126 5.318267 -16.704563 90 71 83
-4.112994 5.318267 -16.704563 70 43 52
-4.059925 5.288390 -16.610718 67 31 35
-3.985185 5.229630 -16.426153 72 34 33
-3.919266 5.181652 -16.275455 75 40 34
-3.875685 5.162706 -16.215946 74 40 31
-3.757143 5.042857 -15.839505 81 47 37
-3.606218 4.877375 -15.319729 85 53 40
-3.578584 4.877375 -15.319729 84 52 39
-3.508533 4.819113 -15.136728 85 53 38
-1.364771 3.916782 -12.302528 64 33 29
-1.342580 3.916782 -12.302528 79 53 50
-1.320388 3.916782 -12.302528 73 58 58
-1.291034 3.895172 -12.234653 54 52 58
-1.277778 3.922222 -12.319615 48 54 68
-0.686499 3.231121 -10.148882 64 46 56
-0.674365 3.260970 -10.242637 71 40 47
-0.655889 3.260970 -10.242637 66 26 30
3.738182 5.134545 -16.127497 96 50 35
3.706619 5.051878 -15.867841 109 63 50
3.702128 5.007092 -15.727168 113 69 57
3.678322 4.937063 -15.507208 116 72 59
3.699826 4.928447 -15.480145 116 73 58
3.701906 4.894281 -15.372830 112 70 53
3.635135 4.770270 -14.983316 112 69 51
3.643698 4.746219 -14.907770 114 72 51
3.652174 4.722408 -14.832982 116 74 52
3.697479 4.746219 -14.907770 115 73 49
3.743842 4.637110 -14.565063 117 76 56
3.845896 4.730318 -14.857827 112 73 53
3.879195 4.738255 -14.882757 117 77 59
3.906040 4.738255 -14.882757 119 78 60
3.932886 4.738255 -14.882757 123 81 62
3.959732 4.738255 -14.882757 122 79 60
3.993277 4.746219 -14.907770 124 79 59
4.033727 4.762226 -14.958049 124 79 58
4.067567 4.770270 -14.983316 114 70 51
4.087690 4.762226 -14.958049 106 64 46
4.107744 4.754209 -14.932867 104 64 49
4.120805 4.738255 -14.882757 108 68 57
4.092715 4.675497 -14.685635 111 72 63
3.993579 4.532905 -14.237758 114 76 67
3.974603 4.482540 -14.079560 114 76 66
3.919129 4.391913 -13.794904 114 75 65
3.865854 4.304878 -13.521529 118 77 67
3.854985 4.265861 -13.398977 117 71 64
3.873303 4.259427 -13.378768 113 64 59
3.839525 4.196136 -13.179975 109 56 53
3.790087 4.116618 -12.930208 102 46 44
3.769452 4.069164 -12.781157 101 42 38
3.655555 3.922222 -12.319615 106 47 37
3.657459 3.900553 -12.251552 110 53 39
3.604872 3.821380 -12.002872 107 57 41
3.578104 3.770360 -11.842621 103 66 57
3.566138 3.735450 -11.732967 99 82 90
3.545098 3.691503 -11.594933 98 96 115
3.566013 3.691503 -11.594933 110 109 124
3.577575 3.681877 -11.564697 123 114 119
3.589077 3.672302 -11.534620 117 92 91
3.595855 3.658031 -11.489797 98 59 55
3.602581 3.643871 -11.445320 97 49 43
3.586207 3.606641 -11.328382 110 59 48
3.570164 3.570164 -11.213809 118 66 49
3.554443 3.534418 -11.101531 121 71 48
3.432692 3.394231 -10.661205 122 72 49
3.398817 3.342012 -10.497187 122 72 50
3.409681 3.334121 -10.472401 124 72 55
3.396491 3.302924 -10.374413 123 72 59
2.687831 2.490300 -7.821978 106 52 47
2.685364 2.475022 -7.773991 100 45 43
3.548999 2.975764 -9.346810 145 137 161
3.517672 2.935551 -9.220502 150 147 171
3.523316 2.926425 -9.191837 152 153 176
3.510791 2.902364 -9.116262 146 149 172
3.520000 2.896410 -9.097562 138 146 169
3.532787 2.893443 -9.088241 132 144 164
3.538304 2.884576 -9.060391 125 140 160
3.547401 2.878695 -9.041920 118 136 155
3.626556 2.929461 -9.201372 112 129 149
7.461818 5.134545 -16.127497 138 74 62
7.545787 5.172161 -16.245647 140 78 63
7.588991 5.181652 -16.275455 133 75 59
7.632353 5.191176 -16.305374 129 77 62
7.661765 5.191176 -16.305374 129 80 64
7.691176 5.191176 -16.305374 129 76 63
7.094594 4.770270 -14.983316 136 82 68
7.121622 4.770270 -14.983316 134 78 63
7.172881 4.786441 -15.034107 130 74 57
7.439579 4.945709 -15.534366 136 82 61
7.178451 4.754209 -14.932867 137 83 60
7.145242 4.714524 -14.808219 136 82 55
7.136213 4.691030 -14.734424 137 86 55
7.139073 4.675497 -14.685635 140 91 58
7.165563 4.675497 -14.685635 139 90 58
7.144737 4.644737 -14.589018 137 88 56
7.124183 4.614379 -14.493665 134 85 54
7.150327 4.614379 -14.493665 138 89 59
7.176471 4.614379 -14.493665 141 90 62
7.086817 4.540193 -14.260648 139 87 63
7.123993 4.547504 -14.283612 135 84 63
7.172860 4.562197 -14.329762 136 85 64
7.198708 4.562197 -14.329762 128 73 53
7.307189 4.614379 -14.493665 133 76 56
7.135135 4.489666 -14.101944 136 74 55
7.149206 4.482540 -14.079560 133 70 52
7.174603 4.482540 -14.079560 130 68 51
7.246006 4.511182 -14.169526 129 71 55
7.294872 4.525641 -14.214941 134 77 63
7.403565 4.576985 -14.376212 137 78 66
7.477977 4.606852 -14.470021 141 78 68
7.553366 4.637110 -14.565063 137 69 61
7.629752 4.667768 -14.661361 125 55 47
7.850847 4.786441 -15.034107 116 50 39
7.986254 4.852234 -15.240761 117 58 47
8.013745 4.852234 -15.240761 115 69 62
8.041237 4.852234 -15.240761 110 90 94
8.082616 4.860585 -15.266994 113 115 129
8.152249 4.885813 -15.346233 131 114 125
8.179931 4.885813 -15.346233 141 95 96
8.193437 4.877375 -15.319729 146 93 89
-12.968750 10.968750 -34.648918 71 70 75
-12.906250 10.968750 -34.648918 87 86 87
-12.843750 10.968750 -34.648918 92 85 79
-12.163568 10.438662 -32.974434 87 76 64
-11.670251 10.064516 -31.792555 87 75 61
-11.250000 9.750000 -30.799038 81 70 63
-10.818792 9.422819 -29.765514 70 57 57
-10.415585 9.116883 -28.799101 70 49 45
-10.133333 8.914286 -28.159121 76 46 32
-9.653496 8.534954 -26.960861 76 44 24
-9.518072 8.457831 -26.717237 74 43 24
-9.192983 8.210526 -25.936033 76 45 29
-8.886364 7.977273 -25.199213 74 41 31
-8.668524 7.821727 -24.707863 60 28 26
-8.505494 7.714286 -24.368469 49 20 24
-8.369565 7.630435 -24.103596 46 23 30
-8.258760 7.568733 -23.908688 58 42 50
-8.128000 7.488000 -23.653662 80 67 72
-8.000000 7.408971 -23.404018 83 66 69
-7.936842 7.389474 -23.342428 70 44 45
-7.832898 7.331593 -23.159590 68 34 33
-7.750649 7.293507 -23.039280 65 32 30
-7.729167 7.312500 -23.099279 62 33 33
-9.182390 8.830189 -27.893469 65 35 33
-9.132075 8.830189 -27.893469 78 39 31
-9.053291 8.802507 -27.806028 79 37 24
-6.046316 5.911579 -18.673943 78 37 23
-5.864476 5.765914 -18.213804 77 39 29
-5.760649 5.695740 -17.992136 76 42 37
-5.659318 5.627254 -17.775797 76 44 43
-5.538462 5.538462 -17.495312 74 41 41
-5.463797 5.495108 -17.358362 67 36 37
-5.432485 5.495108 -17.358362 65 37 40
-5.359223 5.452427 -17.223539 60 37 41
-8.578616 8.830189 -27.893469 49 38 47
-8.501568 8.802507 -27.806028 63 57 67
-8.425000 8.775000 -27.719135 82 74 84
-8.322982 8.720497 -27.546967 90 71 82
-8.247678 8.693499 -27.461681 80 51 59
-8.198142 8.693499 -27.461681 84 48 52
-7.856717 8.382090 -26.477980 79 38 37
-7.762611 8.332344 -26.320841 77 35 28
-7.715134 8.332344 -26.320841 81 41 35
-7.577713 8.234604 -26.012091 83 46 44
-7.379310 8.068966 -25.488859 83 47 46
-7.030303 7.735537 -24.435600 87 50 48
-5.762238 6.545455 -20.676277 84 49 43
-5.724942 6.545455 -20.676277 88 51 46
-5.411236 6.310112 -19.932861 76 52 50
-5.363229 6.295964 -19.888168 86 61 57
-5.327354 6.295964 -19.888168 66 36 33
-5.267857 6.267857 -19.799381 63 24 26
-5.008547 6.000000 -18.953255 64 26 29
-4.829875 5.825726 -18.402744 56 25 31
-4.767010 5.789690 -18.288914 54 30 39
-4.638384 5.672727 -17.919441 58 45 52
-4.578313 5.638554 -17.811493 66 61 71
-4.483168 5.560396 -17.564600 75 81 93
-4.425197 5.527559 -17.460873 81 86 100
-4.292308 5.400000 -17.057928 98 90 104
-4.119850 5.258427 -16.610718 68 42 50
-4.059480 5.219331 -16.487217 75 43 47
-4.022264 5.209648 -16.456629 74 39 38
-3.963168 5.171271 -16.335402 73 37 31
-3.919266 5.152294 -16.275455 77 42 36
-1.392630 3.567980 -11.270804 74 29 27
-1.370558 3.563452 -11.256501 74 32 30
-1.364771 3.894591 -12.302528 71 47 46
-1.295850 3.759036 -11.874328 72 54 52
-1.276139 3.764075 -11.890245 49 40 42
-1.253012 3.759036 -11.874328 33 36 44
-1.250000 3.815217 -12.051798 41 51 66
-0.686499 3.212815 -10.148882 60 43 50
-0.671264 3.227586 -10.195543 71 38 45
3.738182 5.105454 -16.127497 95 47 35
3.700000 5.014286 -15.839505 108 61 50
3.702128 4.978724 -15.727168 110 65 55
3.678322 4.909091 -15.507208 113 69 58
3.699826 4.900524 -15.480145 116 73 60
3.708333 4.875000 -15.399519 114 72 57
3.736111 4.875000 -15.399519 115 72 55
3.662162 4.743243 -14.983316 115 72 55
3.676768 4.727273 -14.932867 116 73 55
3.743842 4.610837 -14.565063 109 70 51
3.776316 4.618421 -14.589018 110 72 53
3.879195 4.711410 -14.882757 118 78 61
3.906040 4.711410 -14.882757 121 79 62
3.939496 4.719328 -14.907770 120 77 60
3.973064 4.727273 -14.932867 119 76 58
4.013514 4.743243 -14.983316 122 76 58
4.047377 4.751269 -15.008669 120 73 54
4.074450 4.751269 -15.008669 112 66 45
4.094594 4.743243 -14.983316 107 63 45
4.100841 4.719328 -14.907770 106 63 48
4.066225 4.649007 -14.685635 105 64 53
3.967897 4.507223 -14.237758 103 64 55
3.949206 4.457143 -14.079560 106 69 60
3.900311 4.373832 -13.816391 112 75 65
3.841463 4.280488 -13.521529 115 79 66
3.830816 4.241692 -13.398977 119 81 69
3.831832 4.216216 -13.318503 117 74 67
3.815750 4.172362 -13.179975 113 66 61
3.766764 4.093295 -12.930208 110 58 55
3.790087 4.093295 -12.930208 104 48 46
3.657459 3.878453 -12.251552 112 54 38
3.595142 3.789474 -11.970476 112 60 46
3.573333 3.744000 -11.826831 107 67 61
3.570861 3.719205 -11.748507 102 81 95
3.545098 3.670588 -11.594933 101 96 122
3.556715 3.661017 -11.564697 106 105 124
3.568270 3.651495 -11.534620 117 109 114
3.575130 3.637306 -11.489797 114 91 90
3.577320 3.618557 -11.430571 92 54 50
3.565773 3.586207 -11.328382 92 45 38
3.549937 3.549937 -11.213809 110 59 48
3.534418 3.514393 -11.101531 118 67 49
3.484663 3.445399 -10.883587 121 72 47
3.428571 3.370948 -10.648407 120 73 46
3.386792 3.311321 -10.460051 119 72 47
3.405660 3.311321 -10.460051 122 72 52
3.548999 2.958904 -9.346810 128 96 117
3.506736 2.909845 -9.191837 132 108 129
3.494347 2.885920 -9.116262 138 119 141
3.503590 2.880000 -9.097562 140 125 148
3.512794 2.874104 -9.078938 142 131 156
3.504065 2.853658 -9.014353 146 141 167
3.495459 2.833502 -8.950679 146 147 173
3.511605 2.833502 -8.950679 142 149 174
3.527750 2.833502 -8.950679 135 147 173
3.844492 3.032398 -9.578966 116 124 152
7.434783 5.086957 -16.069063 133 72 58
7.531993 5.133455 -16.215946 140 80 64
7.561243 5.133455 -16.215946 142 84 69
7.604395 5.142857 -16.245647 137 81 69
7.690037 5.180812 -16.365541 130 75 64
7.719557 5.180812 -16.365541 133 77 66
7.094594 4.743243 -14.983316 136 79 67
7.121622 4.743243 -14.983316 129 71 57
7.172881 4.759322 -15.034107 126 70 52
7.492064 4.952381 -15.643956 137 82 62
7.109634 4.664452 -14.734424 135 82 57
7.112583 4.649007 -14.685635 138 88 60
7.127273 4.641322 -14.661361 141 92 61
7.118421 4.618421 -14.589018 136 88 57
7.121312 4.603279 -14.541185 136 87 56
7.100977 4.573290 -14.446454 132 84 54
7.127036 4.573290 -14.446454 134 85 56
7.176471 4.588235 -14.493665 139 88 61
7.216966 4.580750 -14.470021 138 86 65
7.243067 4.580750 -14.470021 141 87 69
7.210356 4.543689 -14.352950 135 80 60
7.307189 4.588235 -14.493665 132 74 54
7.034483 4.401254 -13.903014 134 73 54
7.092913 4.422047 -13.968698 131 68 50
7.129337 4.429022 -13.990730 129 67 49
7.200000 4.457143 -14.079560 128 70 51
7.271565 4.485623 -14.169526 135 79 61
7.332263 4.507223 -14.237758 140 82 67
7.429498 4.551054 -14.376212 136 73 62
7.504078 4.580750 -14.470021 133 65 56
7.579639 4.610837 -14.565063 127 56 49
7.797980 4.727273 -14.932867 119 50 43
7.972556 4.816466 -15.214620 115 55 45
8.000000 4.816466 -15.214620 113 69 58
8.041237 4.824742 -15.240761 108 88 88
8.124567 4.858131 -15.346233 112 114 129
8.166378 4.866551 -15.372830 128 111 124
8.208333 4.875000 -15.399519 124 74 78
8.236111 4.875000 -15.399519 117 55 54
8.221071 4.849741 -15.319729 126 66 63
-12.968750 10.906250 -34.648918 86 87 87
-12.906250 10.906250 -34.648918 90 88 81
-12.223048 10.379182 -32.974434 90 83 68
-11.855072 10.115942 -32.138126 87 77 58
-11.305555 9.694445 -30.799038 85 74 56
-10.872483 9.369127 -29.765514 79 70 61
-10.202532 8.835443 -28.070009 70 57 59
-9.810397 8.538226 -27.125759 70 48 46
-9.702127 8.486322 -26.960861 77 45 31
-9.566265 8.409638 -26.717237 76 42 23
-9.404762 8.309524 -26.399176 73 41 24
-9.060518 8.046109 -25.562315 70 40 28
-8.811268 7.864789 -24.986261 61 31 29
-8.596685 7.712707 -24.503103 47 21 25
-8.459017 7.628415 -24.235310 44 24 32
-8.369565 7.586957 -24.103596 58 41 50
-8.258760 7.525607 -23.908688 77 62 67
-8.149733 7.465240 -23.716906 83 64 66
-8.000000 7.366755 -23.404018 73 47 46
-7.957784 7.366755 -23.404018 67 33 29
-7.894737 7.347368 -23.342428 68 31 23
-7.894180 7.386243 -23.465935 70 34 28
-9.182390 8.779874 -27.893469 64 34 32
-9.132075 8.779874 -27.893469 77 38 31
-9.053291 8.752351 -27.806028 79 35 25
-6.046316 5.877895 -18.673943 80 36 24
-5.864476 5.733059 -18.213804 77 37 28
-5.714286 5.617706 -17.847330 74 40 37
-5.570020 5.506903 -17.495312 75 44 43
-5.516699 5.485265 -17.426567 67 37 40
-5.463797 5.463797 -17.358362 57 29 33
-5.400778 5.431907 -17.257050 53 28 34
-5.359223 5.421359 -17.223539 52 34 41
-8.601881 8.752351 -27.806028 53 46 52
-8.551724 8.752351 -27.806028 61 58 67
-8.475000 8.725000 -27.719135 73 68 83
-8.372671 8.670808 -27.546967 91 76 91
-8.322982 8.670808 -27.546967 85 57 67
-8.072727 8.460606 -26.879160 81 44 49
-8.000000 8.435045 -26.797955 87 47 46
-7.810089 8.284866 -26.320841 78 34 31
-7.739645 8.260355 -26.242968 76 34 28
-7.647059 8.211764 -26.088596 79 42 38
-7.425287 8.022988 -25.488859 80 47 46
-7.295455 7.931818 -25.199213 79 46 44
-6.953679 7.607629 -24.169273 85 47 43
-5.722222 6.462963 -20.532692 87 48 43
-5.685185 6.462963 -20.532692 87 49 44
-5.661253 6.477958 -20.580332 76 45 40
-5.363229 6.260090 -19.888168 86 61 60
-5.303571 6.232143 -19.799381 65 37 36
-5.256124 6.218263 -19.755285 62 27 32
-4.863070 5.792531 -18.402744 60 28 36
-4.800000 5.756701 -18.288914 57 37 47
-4.670707 5.640404 -17.919441 53 42 52
-4.638384 5.640404 -17.919441 73 73 81
-4.596774 5.629032 -17.883312 84 87 96
-4.537074 5.595191 -17.775797 94 95 111
-4.451485 5.528713 -17.564600 77 69 85
-4.275862 5.348659 -16.992573 89 66 78
-4.119850 5.228465 -16.610718 66 37 41
-4.059480 5.189591 -16.487217 70 40 39
-4.022264 5.179963 -16.456629 77 46 43
-3.948624 5.122936 -16.275455 79 46 39
-3.919266 5.122936 -16.275455 78 43 37
-1.672515 4.081872 -12.968017 75 32 24
-1.399745 3.565773 -11.328382 71 28 26
-1.379310 3.565773 -11.328382 70 30 29
-1.351969 3.547649 -11.270804 71 33 33
-1.333333 3.552163 -11.285144 63 30 30
-1.364771 3.872399 -12.302528 52 40 40
-1.260417 3.635417 -11.549640 39 33 33
-1.246073 3.654450 -11.610108 27 29 32
-1.218750 3.635417 -11.549640 35 46 53
-1.221780 3.707835 -11.779712 51 65 79
3.724638 5.057971 -16.069063 95 46 39
3.700000 4.985714 -15.839505 107 60 52
3.702128 4.950355 -15.727168 112 67 57
3.723894 4.941593 -15.699333 112 68 57
3.977486 5.238274 -16.641882 111 69 57
4.007504 5.238274 -16.641882 116 74 63
4.037523 5.238274 -16.641882 118 75 62
3.662162 4.716216 -14.983316 119 76 61
3.689189 4.716216 -14.983316 119 76 60
3.858824 4.692437 -14.907770 112 73 56
3.885714 4.692437 -14.907770 116 75 60
3.919192 4.700337 -14.932867 117 75 59
3.972881 4.732203 -15.034107 113 70 53
4.054983 4.797251 -15.240761 112 69 51
4.109966 4.797251 -15.240761 117 70 52
4.123288 4.780822 -15.188567 113 66 48
4.101523 4.724196 -15.008669 114 67 50
4.121622 4.716216 -14.983316 115 69 57
4.127731 4.692437 -14.907770 109 65 57
3.967897 4.481541 -14.237758 103 63 54
3.949206 4.431746 -14.079560 104 67 58
3.906396 4.355694 -13.837946 110 73 63
3.876923 4.295384 -13.646343 110 74 61
3.825038 4.211162 -13.378768 114 75 64
3.831832 4.192192 -13.318503 117 75 67
3.815750 4.148588 -13.179975 116 71 66
3.833828 4.142433 -13.160420 111 61 60
3.657459 3.856354 -12.251552 106 48 31
3.590297 3.762803 -11.954344 96 43 32
3.573333 3.722667 -11.826831 87 44 47
3.570861 3.698013 -11.748507 92 69 91
3.545098 3.649673 -11.594933 101 96 131
3.547464 3.630689 -11.534620 112 111 137
3.549806 3.611902 -11.474933 128 122 132
3.565892 3.607235 -11.460107 124 103 105
3.554417 3.574904 -11.357392 95 59 57
3.538656 3.538656 -11.242234 91 45 41
3.532075 3.511950 -11.157388 107 58 49
3.530000 3.490000 -11.087654 115 66 49
3.476132 3.417381 -10.856944 118 71 47
3.428571 3.351741 -10.648407 119 72 47
3.386792 3.292453 -10.460051 119 72 48
3.405660 3.292453 -10.460051 123 74 53
3.699779 3.081678 -9.790422 110 53 62
3.633225 3.011866 -9.568633 113 63 75
3.558360 2.935857 -9.327153 115 71 84
3.534303 2.902287 -9.220502 115 73 89
3.507187 2.866530 -9.106902 119 80 98
3.512794 2.857728 -9.078938 124 88 109
3.486350 2.823054 -8.968780 131 99 125
3.495459 2.817356 -8.950679 138 114 140
3.508065 2.814516 -8.941656 142 126 153
3.513568 2.806030 -8.914697 145 138 164
3.540323 2.814516 -8.941656 144 142 169
3.644628 2.884298 -9.163350 146 145 172
3.755274 2.945148 -9.356669 139 143 170
7.421338 5.048825 -16.040005 126 68 52
7.490909 5.076364 -16.127497 130 73 56
7.547445 5.094891 -16.186356 139 81 67
7.604395 5.113553 -16.245647 138 79 69
7.647707 5.122936 -16.275455 135 75 69
7.705341 5.141805 -16.335402 131 72 62
7.118644 4.732203 -15.034107 137 79 66
7.145763 4.732203 -15.034107 134 76 62
7.136594 4.708263 -14.958049 128 71 54
7.492064 4.924162 -15.643956 139 84 65
7.112583 4.622517 -14.685635 139 91 64
7.092105 4.592105 -14.589018 145 97 70
7.095082 4.577049 -14.541185 141 95 66
7.051948 4.532467 -14.399550 144 98 68
7.009646 4.488746 -14.260648 139 92 64
7.035370 4.488746 -14.260648 137 89 62
7.153094 4.547231 -14.446454 141 91 64
7.228758 4.562091 -14.493665 137 83 63
7.254902 4.562091 -14.493665 139 82 67
7.269168 4.554649 -14.470021 138 79 65
7.307189 4.562091 -14.493665 134 72 57
7.034483 4.376175 -13.903014 138 75 58
7.037500 4.362500 -13.859568 132 69 52
7.118110 4.396851 -13.968698 128 68 50
7.154574 4.403786 -13.990730 127 71 52
7.271565 4.460064 -14.169526 132 80 60
7.332263 4.481541 -14.237758 136 83 64
7.417476 4.517799 -14.352950 139 79 64
7.455430 4.525122 -14.376212 136 69 57
7.554828 4.569558 -14.517386 131 58 49
7.771812 4.684564 -14.882757 120 48 38
7.972556 4.789022 -15.214620 119 57 45
8.013745 4.797251 -15.240761 115 71 55
8.041237 4.797251 -15.240761 104 86 80
8.124567 4.830450 -15.346233 109 113 126
8.180555 4.847222 -15.399519 129 114 129
8.208333 4.847222 -15.399519 124 73 80
8.236111 4.847222 -15.399519 114 48 50
8.263889 4.847222 -15.399519 110 43 45
-13.031250 10.843750 -34.648918 87 85 85
-12.968750 10.843750 -34.648918 90 88 81
-12.328359 10.358209 -33.097473 89 83 70
-11.913043 10.057971 -32.138126 87 78 58
-11.361111 9.638889 -30.799038 86 77 52
-10.926174 9.315436 -29.765514 81 74 52
-10.253164 8.784810 -28.070009 77 69 59
-9.740181 8.386707 -26.797955 69 58 61
-9.604791 8.311378 -26.557255 70 49 49
-9.500000 8.261905 -26.399176 76 45 33
-9.452381 8.261905 -26.399176 75 42 26
-9.239766 8.116959 -25.936033 69 39 25
-8.982857 7.931428 -25.343208 59 31 25
-8.786517 7.797753 -24.916077 46 20 24
-8.573003 7.647383 -24.435600 47 26 35
-8.435967 7.564033 -24.169273 61 45 55
-8.346884 7.523035 -24.038275 76 62 70
-8.258760 7.482480 -23.908688 82 65 68
-8.149733 7.422460 -23.716906 72 49 49
-8.000000 7.324538 -23.404018 65 33 29
-7.957784 7.324538 -23.404018 70 32 25
-7.915567 7.324538 -23.404018 71 34 25
-8.021505 7.462366 -23.844418 70 35 27
-9.232704 8.729560 -27.893469 69 48 49
-9.125000 8.675000 -27.719135 60 33 31
-9.075000 8.675000 -27.719135 73 37 31
-9.025000 8.675000 -27.719135 79 37 28
-8.975000 8.675000 -27.719135 80 34 25
-8.925000 8.675000 -27.719135 77 34 27
-8.875000 8.675000 -27.719135 71 35 33
-5.538462 5.475345 -17.495312 58 31 33
-8.869010 8.869010 -28.339052 49 30 37
-8.761905 8.812698 -28.159121 54 44 51
-8.601881 8.702194 -27.806028 69 66 74
-8.525000 8.675000 -27.719135 83 82 93
-8.448598 8.647975 -27.632782 80 74 89
-8.372671 8.621118 -27.546967 81 62 76
-8.322982 8.621118 -27.546967 84 52 58
-8.048338 8.386707 -26.797955 76 37 37
-7.880952 8.261905 -26.399176 83 42 40
-7.810089 8.237389 -26.320841 76 35 31
-7.716814 8.188790 -26.165554 74 34 30
-7.580175 8.093294 -25.860416 78 42 40
-7.340909 7.886364 -25.199213 79 47 48
-7.074380 7.647383 -24.435600 80 48 45
-6.934783 7.543478 -24.103596 85 48 42
-6.817204 7.462366 -23.844418 86 50 40
-5.722222 6.425926 -20.532692 85 46 41
-5.658986 6.396313 -20.438072 87 46 41
-5.648148 6.425926 -20.532692 76 42 39
-5.624130 6.440835 -20.580332 62 39 37
-5.303571 6.196429 -19.799381 54 32 36
-5.000000 5.881356 -18.792633 58 34 41
-4.754564 5.630832 -17.992136 57 38 47
-4.703030 5.608081 -17.919441 64 55 67
-4.651911 5.585513 -17.847330 76 74 85
-4.619718 5.585513 -17.847330 86 89 96
-4.596774 5.596774 -17.883312 95 97 106
-4.555332 5.585513 -17.847330 88 82 97
-4.505010 5.563126 -17.775797 78 63 77
-4.464000 5.552000 -17.740246 88 57 64
-4.204934 5.267552 -16.831352 75 39 41
-4.135338 5.218045 -16.673164 69 37 35
-4.105263 5.218045 -16.673164 79 48 45
-4.022264 5.150278 -16.456629 76 45 40
-3.927007 5.065693 -16.186356 75 42 35
-3.876588 5.038113 -16.098227 80 46 36
-1.672515 4.058479 -12.968017 72 32 24
-1.616046 3.977077 -12.707912 71 30 24
-1.572843 3.926450 -12.546143 69 28 24
-1.550212 3.926450 -12.546143 68 28 27
-1.436170 3.691489 -11.795377 66 28 28
-1.413015 3.686587 -11.779712 62 29 29
-1.375328 3.643045 -11.640581 53 26 26
-1.354331 3.643045 -11.640581 44 24 24
-1.333333 3.643045 -11.640581 43 30 31
-1.303781 3.619296 -11.564697 39 33 34
-1.274611 3.595855 -11.489797 31 31 32
-1.244216 3.568123 -11.401186 30 35 37
-1.233161 3.595855 -11.489797 33 44 47
-1.203085 3.568123 -11.401186 41 57 64
-1.187097 3.581935 -11.445320 52 68 80
-1.175553 3.609883 -11.534620 59 70 88
3.731397 5.038113 -16.098227 94 42 40
3.686833 4.939502 -15.783137 109 61 56
3.715302 4.939502 -15.783137 117 70 62
3.730496 4.921986 -15.727168 116 72 62
3.752212 4.913274 -15.699333 113 70 61
3.780531 4.913274 -15.699333 113 70 61
3.775439 4.870175 -15.561620 116 72 62
3.649832 4.673401 -14.932867 120 76 66
3.676768 4.673401 -14.932867 115 71 61
3.918644 4.705085 -15.034107 116 75 60
3.952462 4.713073 -15.059631 121 79 65
4.180555 4.819445 -15.399519 107 60 43
4.172117 4.777969 -15.266994 110 63 48
4.156729 4.729131 -15.110942 110 64 55
4.155668 4.697124 -15.008669 106 62 56
4.059114 4.558292 -14.565063 102 61 56
3.955485 4.413354 -14.101944 109 72 65
3.912500 4.337500 -13.859568 117 80 71
3.900929 4.297214 -13.730841 114 78 67
3.883614 4.251149 -13.583650 111 73 63
3.831832 4.168168 -13.318503 115 72 66
3.821429 4.130952 -13.199588 117 70 68
3.833828 4.118694 -13.160420 110 58 58
3.592944 3.766621 -12.035445 110 51 33
3.571046 3.721180 -11.890245 97 44 34
3.573333 3.701333 -11.826831 87 45 48
3.570861 3.676821 -11.748507 90 69 91
3.535854 3.619296 -11.564697 97 94 129
3.542857 3.605195 -11.519640 110 113 139
3.545220 3.586563 -11.460107 130 129 139
3.561290 3.581935 -11.445320 124 107 108
3.540816 3.540816 -11.313932 98 64 62
3.516373 3.496222 -11.171439 92 47 44
3.518797 3.478697 -11.115442 102 53 46
3.525593 3.465668 -11.073812 110 61 48
3.476132 3.397797 -10.856944 115 67 47
3.428571 3.332533 -10.648407 118 72 49
3.443645 3.328537 -10.635639 121 75 51
3.773050 3.281324 -10.484779 124 74 68
3.791962 3.281324 -10.484779 122 74 71
3.819905 3.289099 -10.509624 118 72 71
3.834320 3.285207 -10.497187 120 73 74
3.835100 3.269729 -10.447730 114 66 65
3.752294 3.183486 -10.172159 110 56 52
3.770642 3.183486 -10.172159 115 54 48
3.667396 3.037199 -9.704730 116 52 53
3.633225 2.994606 -9.568633 113 53 56
3.603834 2.956336 -9.446350 111 52 59
3.582719 2.925184 -9.346810 110 54 62
3.550936 2.885655 -9.220502 111 55 65
3.520000 2.847179 -9.097562 111 56 72
3.504065 2.821138 -9.014353 111 61 81
3.498990 2.804040 -8.959721 110 67 89
3.508065 2.798387 -8.941656 115 80 104
3.513568 2.789950 -8.914697 125 97 121
3.543895 2.801211 -8.950679 130 108 132
3.729387 2.934461 -9.376451 137 117 139
3.746300 2.934461 -9.376451 141 125 146
3.755274 2.928270 -9.356669 145 135 156
3.788136 2.940678 -9.396317 148 145 168
7.394595 5.001802 -15.982203 123 68 53
7.463768 5.028986 -16.069063 126 69 54
7.561243 5.074955 -16.215946 137 80 67
7.632353 5.102941 -16.305374 143 80 74
7.633699 5.084249 -16.245647 136 72 67
7.691176 5.102941 -16.305374 133 70 62
7.692307 5.084249 -16.245647 137 78 65
7.136594 4.681282 -14.958049 128 71 54
7.336788 4.794473 -15.319729 144 88 71
7.112583 4.596026 -14.685635 140 93 69
7.057283 4.543372 -14.517386 143 97 71
6.980645 4.477419 -14.306650 140 96 67
6.961538 4.448718 -14.214941 143 98 70
6.931637 4.413354 -14.101944 141 95 68
6.957075 4.413354 -14.101944 138 91 63
7.038462 4.448718 -14.214941 137 88 61
7.216966 4.528548 -14.470021 137 86 63
7.254902 4.535948 -14.493665 136 82 63
7.281046 4.535948 -14.493665 133 75 58
7.129337 4.378549 -13.990730 131 70 52
7.154574 4.378549 -13.990730 132 76 57
7.271565 4.434505 -14.169526 133 81 63
7.332263 4.455859 -14.237758 128 76 57
7.417476 4.491910 -14.352950 135 78 61
7.455430 4.499190 -14.376212 136 71 56
7.554828 4.543372 -14.517386 132 59 47
7.771812 4.657718 -14.882757 123 51 37
7.972556 4.761578 -15.214620 119 56 40
8.000000 4.761578 -15.214620 108 65 46
8.041237 4.769760 -15.240761 99 82 74
8.124567 4.802768 -15.346233 109 114 125
8.180555 4.819445 -15.399519 128 116 131
8.208333 4.819445 -15.399519 126 76 85
8.236111 4.819445 -15.399519 120 53 59
-13.031250 10.781250 -34.648918 89 83 79
-12.968750 10.781250 -34.648918 90 81 68
-12.147058 10.147058 -32.610748 90 80 60
-11.659575 9.787234 -31.454336 88 77 51
-11.129251 9.387755 -30.170486 85 77 48
-10.640523 9.019608 -28.987329 81 74 49
-10.220820 8.706625 -27.981461 74 68 59
-9.710843 8.313253 -26.717237 68 59 65
-9.519288 8.189911 -26.320841 67 49 52
-9.333333 8.070175 -25.936033 72 45 38
-9.259475 8.046647 -25.860416 69 40 29
-9.028571 7.885714 -25.343208 59 31 23
-8.931818 7.840909 -25.199213 53 26 27
-8.761905 7.731092 -24.846283 53 29 39
-8.573003 7.603306 -24.435600 66 46 58
-8.435967 7.520436 -24.169273 80 65 73
-8.346884 7.479675 -24.038275 80 64 67
-8.258760 7.439353 -23.908688 70 50 48
-8.063492 7.301587 -23.465935 65 37 33
-7.978947 7.263158 -23.342428 64 28 25
-7.895288 7.225131 -23.220217 68 30 24
-7.894737 7.263158 -23.342428 73 38 28
-7.957334 7.360000 -23.653662 67 37 26
-8.065217 7.500000 -24.103596 62 38 27
-8.918429 8.338368 -26.797955 67 49 41
-9.089784 8.544891 -27.461681 65 48 44
-9.040248 8.544891 -27.461681 58 35 31
-9.046729 8.598131 -27.632782 72 37 34
-9.025000 8.625000 -27.719135 79 36 31
-8.975000 8.625000 -27.719135 79 32 26
-8.930818 8.679245 -27.893469 70 30 31
-8.990228 8.990228 -28.892908 69 66 74
-8.575000 8.625000 -27.719135 80 80 92
-8.525000 8.625000 -27.719135 81 79 93
-8.448598 8.598131 -27.632782 80 71 84
-8.398754 8.598131 -27.632782 81 61 69
-8.271605 8.518518 -27.376923 68 37 37
-8.048338 8.338368 -26.797955 72 37 33
-7.880952 8.214286 -26.399176 79 44 40
-7.810089 8.189911 -26.320841 75 39 35
-7.694118 8.117647 -26.088596 76 38 35
-7.492795 7.953890 -25.562315 81 44 44
-7.299435 7.796610 -25.056845 83 49 50
-6.997275 7.520436 -24.169273 84 49 48
-6.934783 7.500000 -24.103596 86 49 41
-5.732719 6.359447 -20.438072 80 45 35
-5.567567 6.216216 -19.977755 84 45 39
-5.531531 6.216216 -19.977755 87 46 43
-5.570776 6.301370 -20.251423 83 44 44
-5.559633 6.330275 -20.344318 69 40 43
-5.574074 6.388889 -20.532692 79 57 63
-5.303571 6.160714 -19.799381 47 37 43
-4.787018 5.598377 -17.992136 55 49 57
-4.725806 5.564516 -17.883312 61 60 71
-4.646707 5.508982 -17.704836 78 80 92
-4.560158 5.443787 -17.495312 90 91 103
-4.519685 5.433071 -17.460873 97 93 102
-4.587525 5.553320 -17.847330 82 74 82
-4.555332 5.553320 -17.847330 77 64 76
-4.514056 5.542169 -17.811493 82 62 73
-4.472946 5.531062 -17.775797 77 45 47
-4.204934 5.237192 -16.831352 82 44 41
-4.150943 5.207547 -16.736082 76 38 37
-4.105263 5.187970 -16.673164 78 43 39
-4.007394 5.101664 -16.395792 80 46 37
-3.802120 4.876325 -15.671596 81 47 37
-3.701906 4.783362 -15.372830 78 45 30
-3.738977 4.867725 -15.643956 86 53 36
-1.672515 4.035088 -12.968017 70 31 23
-1.649123 4.035088 -12.968017 68 29 22
-1.593123 3.954155 -12.707912 65 27 21
-1.550212 3.903819 -12.546143 63 26 24
-1.436170 3.670213 -11.795377 59 27 26
-1.416778 3.675100 -11.811083 52 25 25
-1.393617 3.670213 -11.795377 46 26 26
-1.357895 3.631579 -11.671214 41 28 30
-1.324641 3.598435 -11.564697 36 31 34
-1.291990 3.565892 -11.460107 34 37 39
-1.271318 3.565892 -11.460107 38 48 50
-1.244216 3.547558 -11.401186 40 56 57
-1.228387 3.561290 -11.445320 39 58 60
-1.195402 3.524904 -11.328382 45 63 67
-1.171975 3.515924 -11.299520 57 69 79
-1.145754 3.498099 -11.242234 66 71 88
3.731397 5.009074 -16.098227 92 40 40
3.686833 4.911032 -15.783137 112 63 60
