ply
        format ascii 1.0
        element vertex 73507
        property float x
        property float y
        property float z
        property uchar red
        property uchar green
        property uchar blue
        end_header
9.906250 -5.781250 -34.648918 155 155 155
9.968750 -5.781250 -34.648918 155 155 155
10.031250 -5.781250 -34.648918 155 155 155
10.093750 -5.781250 -34.648918 155 155 155
10.156250 -5.781250 -34.648918 155 155 155
10.218750 -5.781250 -34.648918 155 155 155
10.281250 -5.781250 -34.648918 155 155 155
10.343750 -5.781250 -34.648918 155 155 155
10.406250 -5.781250 -34.648918 155 155 155
10.468750 -5.781250 -34.648918 155 155 155
10.531250 -5.781250 -34.648918 155 155 155
10.593750 -5.781250 -34.648918 155 155 155
10.656250 -5.781250 -34.648918 155 155 155
10.718750 -5.781250 -34.648918 155 155 155
10.781250 -5.781250 -34.648918 155 155 155
10.843750 -5.781250 -34.648918 155 155 155
10.906250 -5.781250 -34.648918 155 155 155
10.968750 -5.781250 -34.648918 155 155 155
11.031250 -5.781250 -34.648918 155 155 155
11.093750 -5.781250 -34.648918 155 155 155
11.156250 -5.781250 -34.648918 155 155 155
11.218750 -5.781250 -34.648918 155 155 155
11.281250 -5.781250 -34.648918 155 155 155
11.343750 -5.781250 -34.648918 155 155 155
11.406250 -5.781250 -34.648918 155 155 155
11.468750 -5.781250 -34.648918 155 155 155
11.531250 -5.781250 -34.648918 155 155 155
11.593750 -5.781250 -34.648918 155 155 155
11.656250 -5.781250 -34.648918 155 155 155
11.718750 -5.781250 -34.648918 155 155 155
11.781250 -5.781250 -34.648918 155 155 155
11.843750 -5.781250 -34.648918 155 155 155
11.906250 -5.781250 -34.648918 155 155 155
11.968750 -5.781250 -34.648918 155 155 155
12.031250 -5.781250 -34.648918 155 155 155
12.093750 -5.781250 -34.648918 155 155 155
12.156250 -5.781250 -34.648918 155 155 155
12.406250 -5.781250 -34.648918 155 155 155
12.468750 -5.781250 -34.648918 155 155 155
12.531250 -5.781250 -34.648918 155 155 155
12.593750 -5.781250 -34.648918 155 155 155
12.656250 -5.781250 -34.648918 155 155 155
12.718750 -5.781250 -34.648918 155 155 155
12.781250 -5.781250 -34.648918 155 155 155
12.843750 -5.781250 -34.648918 155 155 155
13.343750 -5.781250 -34.648918 155 155 155
13.406250 -5.781250 -34.648918 155 155 155
15.968750 -5.781250 -34.648918 155 155 155
16.031250 -5.781250 -34.648918 155 155 155
16.093750 -5.781250 -34.648918 155 155 155
16.156250 -5.781250 -34.648918 155 155 155
17.218750 -5.781250 -34.648918 155 155 155
17.281250 -5.781250 -34.648918 155 155 155
17.343750 -5.781250 -34.648918 155 155 155
17.406250 -5.781250 -34.648918 155 155 155
17.468750 -5.781250 -34.648918 155 155 155
17.531250 -5.781250 -34.648918 155 155 155
17.593750 -5.781250 -34.648918 155 155 155
17.656250 -5.781250 -34.648918 155 155 155
17.718750 -5.781250 -34.648918 155 155 155
17.781250 -5.781250 -34.648918 155 155 155
17.843750 -5.781250 -34.648918 155 155 155
17.906250 -5.781250 -34.648918 155 155 155
17.968750 -5.781250 -34.648918 155 155 155
18.031250 -5.781250 -34.648918 155 155 155
18.093750 -5.781250 -34.648918 155 155 155
18.156250 -5.781250 -34.648918 155 155 155
-1.878378 -0.842342 -4.994439 155 155 155
-1.869369 -0.842342 -4.994439 155 155 155
-1.162896 -0.846154 -5.017038 155 155 155
-1.148649 -0.842342 -4.994439 155 155 155
-1.139640 -0.842342 -4.994439 155 155 155
-0.959459 -0.842342 -4.994439 156 156 156
-0.950450 -0.842342 -4.994439 157 157 157
-0.774194 -0.846633 -5.019877 155 155 155
-0.765139 -0.846633 -5.019877 155 155 155
-0.013514 -0.842342 -4.994439 154 154 154
-0.004505 -0.842342 -4.994439 155 155 155
0.004505 -0.842342 -4.994439 155 155 155
0.031710 -0.847112 -5.022720 154 154 154
0.040770 -0.847112 -5.022720 155 155 155
0.049830 -0.847112 -5.022720 155 155 155
0.058824 -0.846154 -5.017038 155 155 155
0.067568 -0.842342 -4.994439 155 155 155
0.602151 -0.846633 -5.019877 157 157 157
0.608108 -0.842342 -4.994439 155 155 155
0.617117 -0.842342 -4.994439 156 156 156
0.626126 -0.842342 -4.994439 156 156 156
0.635135 -0.842342 -4.994439 155 155 155
0.644144 -0.842342 -4.994439 155 155 155
0.653153 -0.842342 -4.994439 155 155 155
0.662162 -0.842342 -4.994439 154 154 154
0.671171 -0.842342 -4.994439 156 156 156
0.680180 -0.842342 -4.994439 156 156 156
0.689189 -0.842342 -4.994439 155 155 155
0.698198 -0.842342 -4.994439 155 155 155
0.707207 -0.842342 -4.994439 155 155 155
0.716216 -0.842342 -4.994439 155 155 155
0.725225 -0.842342 -4.994439 156 156 156
0.734234 -0.842342 -4.994439 154 154 154
0.743243 -0.842342 -4.994439 155 155 155
0.752252 -0.842342 -4.994439 156 156 156
0.761261 -0.842342 -4.994439 153 153 153
0.770270 -0.842342 -4.994439 157 157 157
6.156250 -5.843750 -34.648918 155 155 155
6.218750 -5.843750 -34.648918 155 155 155
6.281250 -5.843750 -34.648918 155 155 155
6.343750 -5.843750 -34.648918 155 155 155
6.406250 -5.843750 -34.648918 155 155 155
6.468750 -5.843750 -34.648918 155 155 155
6.531250 -5.843750 -34.648918 155 155 155
6.593750 -5.843750 -34.648918 155 155 155
6.656250 -5.843750 -34.648918 155 155 155
6.718750 -5.843750 -34.648918 155 155 155
6.781250 -5.843750 -34.648918 155 155 155
6.843750 -5.843750 -34.648918 155 155 155
6.906250 -5.843750 -34.648918 155 155 155
6.968750 -5.843750 -34.648918 155 155 155
7.031250 -5.843750 -34.648918 155 155 155
7.093750 -5.843750 -34.648918 155 155 155
7.156250 -5.843750 -34.648918 155 155 155
7.218750 -5.843750 -34.648918 155 155 155
7.281250 -5.843750 -34.648918 155 155 155
7.343750 -5.843750 -34.648918 155 155 155
7.406250 -5.843750 -34.648918 155 155 155
7.468750 -5.843750 -34.648918 155 155 155
7.531250 -5.843750 -34.648918 155 155 155
7.593750 -5.843750 -34.648918 155 155 155
8.156250 -5.843750 -34.648918 155 155 155
8.218750 -5.843750 -34.648918 155 155 155
8.281250 -5.843750 -34.648918 155 155 155
8.343750 -5.843750 -34.648918 155 155 155
8.406250 -5.843750 -34.648918 155 155 155
8.468750 -5.843750 -34.648918 155 155 155
8.531250 -5.843750 -34.648918 155 155 155
8.593750 -5.843750 -34.648918 155 155 155
8.656250 -5.843750 -34.648918 155 155 155
8.718750 -5.843750 -34.648918 155 155 155
8.781250 -5.843750 -34.648918 155 155 155
8.843750 -5.843750 -34.648918 155 155 155
8.906250 -5.843750 -34.648918 155 155 155
8.968750 -5.843750 -34.648918 155 155 155
9.031250 -5.843750 -34.648918 155 155 155
9.093750 -5.843750 -34.648918 155 155 155
9.156250 -5.843750 -34.648918 155 155 155
9.218750 -5.843750 -34.648918 155 155 155
9.281250 -5.843750 -34.648918 155 155 155
9.343750 -5.843750 -34.648918 155 155 155
9.406250 -5.843750 -34.648918 155 155 155
9.468750 -5.843750 -34.648918 155 155 155
9.531250 -5.843750 -34.648918 155 155 155
9.593750 -5.843750 -34.648918 155 155 155
9.656250 -5.843750 -34.648918 155 155 155
9.718750 -5.843750 -34.648918 155 155 155
9.781250 -5.843750 -34.648918 155 155 155
9.843750 -5.843750 -34.648918 155 155 155
9.906250 -5.843750 -34.648918 155 155 155
9.968750 -5.843750 -34.648918 155 155 155
10.031250 -5.843750 -34.648918 155 155 155
10.093750 -5.843750 -34.648918 155 155 155
10.156250 -5.843750 -34.648918 155 155 155
10.218750 -5.843750 -34.648918 155 155 155
10.281250 -5.843750 -34.648918 155 155 155
10.343750 -5.843750 -34.648918 155 155 155
10.406250 -5.843750 -34.648918 155 155 155
10.468750 -5.843750 -34.648918 155 155 155
10.531250 -5.843750 -34.648918 155 155 155
10.593750 -5.843750 -34.648918 155 155 155
10.656250 -5.843750 -34.648918 155 155 155
10.718750 -5.843750 -34.648918 155 155 155
10.781250 -5.843750 -34.648918 155 155 155
10.843750 -5.843750 -34.648918 155 155 155
10.906250 -5.843750 -34.648918 155 155 155
10.968750 -5.843750 -34.648918 155 155 155
11.031250 -5.843750 -34.648918 155 155 155
11.093750 -5.843750 -34.648918 155 155 155
11.156250 -5.843750 -34.648918 155 155 155
11.218750 -5.843750 -34.648918 155 155 155
11.281250 -5.843750 -34.648918 155 155 155
11.343750 -5.843750 -34.648918 155 155 155
11.406250 -5.843750 -34.648918 155 155 155
11.468750 -5.843750 -34.648918 155 155 155
11.531250 -5.843750 -34.648918 155 155 155
11.593750 -5.843750 -34.648918 155 155 155
11.656250 -5.843750 -34.648918 155 155 155
11.718750 -5.843750 -34.648918 155 155 155
11.781250 -5.843750 -34.648918 155 155 155
11.843750 -5.843750 -34.648918 155 155 155
11.906250 -5.843750 -34.648918 155 155 155
11.968750 -5.843750 -34.648918 155 155 155
12.031250 -5.843750 -34.648918 155 155 155
12.093750 -5.843750 -34.648918 155 155 155
12.156250 -5.843750 -34.648918 155 155 155
12.406250 -5.843750 -34.648918 155 155 155
12.468750 -5.843750 -34.648918 155 155 155
12.531250 -5.843750 -34.648918 155 155 155
12.593750 -5.843750 -34.648918 155 155 155
12.656250 -5.843750 -34.648918 155 155 155
12.718750 -5.843750 -34.648918 155 155 155
12.781250 -5.843750 -34.648918 155 155 155
12.843750 -5.843750 -34.648918 155 155 155
13.343750 -5.843750 -34.648918 155 155 155
13.406250 -5.843750 -34.648918 155 155 155
15.968750 -5.843750 -34.648918 155 155 155
16.031250 -5.843750 -34.648918 155 155 155
16.093750 -5.843750 -34.648918 155 155 155
16.156250 -5.843750 -34.648918 155 155 155
17.218750 -5.843750 -34.648918 155 155 155
17.281250 -5.843750 -34.648918 155 155 155
17.343750 -5.843750 -34.648918 155 155 155
17.406250 -5.843750 -34.648918 155 155 155
17.468750 -5.843750 -34.648918 155 155 155
17.531250 -5.843750 -34.648918 155 155 155
17.593750 -5.843750 -34.648918 155 155 155
17.656250 -5.843750 -34.648918 155 155 155
17.718750 -5.843750 -34.648918 155 155 155
17.781250 -5.843750 -34.648918 155 155 155
17.843750 -5.843750 -34.648918 155 155 155
17.906250 -5.843750 -34.648918 155 155 155
17.968750 -5.843750 -34.648918 155 155 155
18.031250 -5.843750 -34.648918 155 155 155
18.093750 -5.843750 -34.648918 155 155 155
18.156250 -5.843750 -34.648918 155 155 155
-1.878378 -0.851351 -4.994439 155 155 155
-1.869369 -0.851351 -4.994439 155 155 155
-1.139640 -0.851351 -4.994439 155 155 155
-0.004505 -0.851351 -4.994439 155 155 155
0.611205 -0.855688 -5.019877 154 154 154
0.644144 -0.851351 -4.994439 155 155 155
0.653153 -0.851351 -4.994439 156 156 156
0.662162 -0.851351 -4.994439 157 157 157
0.671171 -0.851351 -4.994439 153 153 153
0.680180 -0.851351 -4.994439 155 155 155
0.689189 -0.851351 -4.994439 156 156 156
0.698198 -0.851351 -4.994439 155 155 155
0.707207 -0.851351 -4.994439 155 155 155
0.716216 -0.851351 -4.994439 156 156 156
0.725225 -0.851351 -4.994439 154 154 154
0.734234 -0.851351 -4.994439 156 156 156
0.743243 -0.851351 -4.994439 156 156 156
0.752252 -0.851351 -4.994439 154 154 154
0.761261 -0.851351 -4.994439 157 157 157
0.770270 -0.851351 -4.994439 153 153 153
0.779279 -0.851351 -4.994439 155 155 155
6.156250 -5.906250 -34.648918 155 155 155
6.218750 -5.906250 -34.648918 155 155 155
6.281250 -5.906250 -34.648918 155 155 155
6.343750 -5.906250 -34.648918 155 155 155
6.406250 -5.906250 -34.648918 155 155 155
6.468750 -5.906250 -34.648918 155 155 155
6.531250 -5.906250 -34.648918 155 155 155
6.593750 -5.906250 -34.648918 155 155 155
6.656250 -5.906250 -34.648918 155 155 155
6.718750 -5.906250 -34.648918 155 155 155
6.781250 -5.906250 -34.648918 155 155 155
6.843750 -5.906250 -34.648918 155 155 155
6.906250 -5.906250 -34.648918 155 155 155
6.968750 -5.906250 -34.648918 155 155 155
7.031250 -5.906250 -34.648918 155 155 155
7.093750 -5.906250 -34.648918 155 155 155
7.156250 -5.906250 -34.648918 155 155 155
7.218750 -5.906250 -34.648918 155 155 155
7.281250 -5.906250 -34.648918 155 155 155
7.343750 -5.906250 -34.648918 155 155 155
7.406250 -5.906250 -34.648918 155 155 155
7.468750 -5.906250 -34.648918 155 155 155
7.531250 -5.906250 -34.648918 155 155 155
7.593750 -5.906250 -34.648918 155 155 155
8.156250 -5.906250 -34.648918 155 155 155
8.218750 -5.906250 -34.648918 155 155 155
8.281250 -5.906250 -34.648918 155 155 155
8.343750 -5.906250 -34.648918 155 155 155
8.406250 -5.906250 -34.648918 155 155 155
8.468750 -5.906250 -34.648918 155 155 155
8.531250 -5.906250 -34.648918 155 155 155
8.593750 -5.906250 -34.648918 155 155 155
8.656250 -5.906250 -34.648918 155 155 155
8.718750 -5.906250 -34.648918 155 155 155
8.781250 -5.906250 -34.648918 155 155 155
8.843750 -5.906250 -34.648918 155 155 155
8.906250 -5.906250 -34.648918 155 155 155
8.968750 -5.906250 -34.648918 155 155 155
9.031250 -5.906250 -34.648918 155 155 155
9.093750 -5.906250 -34.648918 155 155 155
9.156250 -5.906250 -34.648918 155 155 155
9.218750 -5.906250 -34.648918 155 155 155
9.281250 -5.906250 -34.648918 155 155 155
9.343750 -5.906250 -34.648918 155 155 155
9.406250 -5.906250 -34.648918 155 155 155
9.468750 -5.906250 -34.648918 155 155 155
9.531250 -5.906250 -34.648918 155 155 155
9.593750 -5.906250 -34.648918 155 155 155
9.656250 -5.906250 -34.648918 155 155 155
9.718750 -5.906250 -34.648918 155 155 155
9.781250 -5.906250 -34.648918 155 155 155
9.843750 -5.906250 -34.648918 155 155 155
9.906250 -5.906250 -34.648918 155 155 155
9.968750 -5.906250 -34.648918 155 155 155
10.031250 -5.906250 -34.648918 155 155 155
10.093750 -5.906250 -34.648918 155 155 155
10.156250 -5.906250 -34.648918 155 155 155
10.218750 -5.906250 -34.648918 155 155 155
10.281250 -5.906250 -34.648918 155 155 155
10.343750 -5.906250 -34.648918 155 155 155
10.406250 -5.906250 -34.648918 155 155 155
10.468750 -5.906250 -34.648918 155 155 155
10.531250 -5.906250 -34.648918 155 155 155
10.593750 -5.906250 -34.648918 155 155 155
10.656250 -5.906250 -34.648918 155 155 155
10.718750 -5.906250 -34.648918 155 155 155
10.781250 -5.906250 -34.648918 155 155 155
10.843750 -5.906250 -34.648918 155 155 155
10.906250 -5.906250 -34.648918 155 155 155
10.968750 -5.906250 -34.648918 155 155 155
11.031250 -5.906250 -34.648918 155 155 155
11.093750 -5.906250 -34.648918 155 155 155
11.156250 -5.906250 -34.648918 155 155 155
11.218750 -5.906250 -34.648918 155 155 155
11.281250 -5.906250 -34.648918 155 155 155
11.343750 -5.906250 -34.648918 155 155 155
11.406250 -5.906250 -34.648918 155 155 155
11.468750 -5.906250 -34.648918 155 155 155
11.531250 -5.906250 -34.648918 155 155 155
11.593750 -5.906250 -34.648918 155 155 155
11.656250 -5.906250 -34.648918 155 155 155
11.718750 -5.906250 -34.648918 155 155 155
11.781250 -5.906250 -34.648918 155 155 155
11.843750 -5.906250 -34.648918 155 155 155
11.906250 -5.906250 -34.648918 155 155 155
11.968750 -5.906250 -34.648918 155 155 155
12.031250 -5.906250 -34.648918 155 155 155
12.093750 -5.906250 -34.648918 155 155 155
12.156250 -5.906250 -34.648918 155 155 155
12.406250 -5.906250 -34.648918 155 155 155
12.468750 -5.906250 -34.648918 155 155 155
12.531250 -5.906250 -34.648918 155 155 155
12.593750 -5.906250 -34.648918 155 155 155
12.656250 -5.906250 -34.648918 155 155 155
12.718750 -5.906250 -34.648918 155 155 155
12.781250 -5.906250 -34.648918 155 155 155
12.843750 -5.906250 -34.648918 155 155 155
13.343750 -5.906250 -34.648918 155 155 155
13.406250 -5.906250 -34.648918 155 155 155
15.968750 -5.906250 -34.648918 155 155 155
16.031250 -5.906250 -34.648918 155 155 155
16.093750 -5.906250 -34.648918 155 155 155
16.156250 -5.906250 -34.648918 155 155 155
17.218750 -5.906250 -34.648918 155 155 155
17.281250 -5.906250 -34.648918 155 155 155
17.343750 -5.906250 -34.648918 155 155 155
17.406250 -5.906250 -34.648918 155 155 155
17.468750 -5.906250 -34.648918 155 155 155
17.531250 -5.906250 -34.648918 155 155 155
17.593750 -5.906250 -34.648918 155 155 155
17.656250 -5.906250 -34.648918 155 155 155
17.718750 -5.906250 -34.648918 155 155 155
17.781250 -5.906250 -34.648918 155 155 155
17.843750 -5.906250 -34.648918 155 155 155
17.906250 -5.906250 -34.648918 155 155 155
17.968750 -5.906250 -34.648918 155 155 155
18.031250 -5.906250 -34.648918 155 155 155
18.093750 -5.906250 -34.648918 155 155 155
18.156250 -5.906250 -34.648918 155 155 155
-1.878378 -0.860360 -4.994439 155 155 155
-1.869369 -0.860360 -4.994439 155 155 155
-6.513932 -4.730650 -27.461681 155 155 155
-6.444445 -4.716049 -27.376923 155 155 155
-6.395061 -4.716049 -27.376923 155 155 155
-6.345679 -4.716049 -27.376923 155 155 155
0.653153 -0.860360 -4.994439 154 154 154
0.662162 -0.860360 -4.994439 154 154 154
0.671171 -0.860360 -4.994439 155 155 155
0.680180 -0.860360 -4.994439 156 156 156
0.689189 -0.860360 -4.994439 154 154 154
0.698198 -0.860360 -4.994439 155 155 155
0.707207 -0.860360 -4.994439 155 155 155
0.716216 -0.860360 -4.994439 156 156 156
0.725225 -0.860360 -4.994439 155 155 155
0.741330 -0.868675 -5.042708 154 154 154
0.770270 -0.860360 -4.994439 156 156 156
6.156250 -5.968750 -34.648918 155 155 155
6.218750 -5.968750 -34.648918 155 155 155
6.281250 -5.968750 -34.648918 155 155 155
6.343750 -5.968750 -34.648918 155 155 155
6.406250 -5.968750 -34.648918 155 155 155
6.468750 -5.968750 -34.648918 155 155 155
6.531250 -5.968750 -34.648918 155 155 155
6.593750 -5.968750 -34.648918 155 155 155
6.656250 -5.968750 -34.648918 155 155 155
6.718750 -5.968750 -34.648918 155 155 155
6.781250 -5.968750 -34.648918 155 155 155
6.843750 -5.968750 -34.648918 155 155 155
6.906250 -5.968750 -34.648918 155 155 155
6.968750 -5.968750 -34.648918 155 155 155
7.031250 -5.968750 -34.648918 155 155 155
7.093750 -5.968750 -34.648918 155 155 155
7.156250 -5.968750 -34.648918 155 155 155
7.218750 -5.968750 -34.648918 155 155 155
7.281250 -5.968750 -34.648918 155 155 155
7.343750 -5.968750 -34.648918 155 155 155
7.406250 -5.968750 -34.648918 155 155 155
7.468750 -5.968750 -34.648918 155 155 155
7.531250 -5.968750 -34.648918 155 155 155
7.593750 -5.968750 -34.648918 155 155 155
8.156250 -5.968750 -34.648918 155 155 155
8.218750 -5.968750 -34.648918 155 155 155
8.281250 -5.968750 -34.648918 155 155 155
8.343750 -5.968750 -34.648918 155 155 155
8.406250 -5.968750 -34.648918 155 155 155
8.468750 -5.968750 -34.648918 155 155 155
8.531250 -5.968750 -34.648918 155 155 155
8.593750 -5.968750 -34.648918 155 155 155
8.656250 -5.968750 -34.648918 155 155 155
8.718750 -5.968750 -34.648918 155 155 155
8.781250 -5.968750 -34.648918 155 155 155
8.843750 -5.968750 -34.648918 155 155 155
8.906250 -5.968750 -34.648918 155 155 155
8.968750 -5.968750 -34.648918 155 155 155
9.031250 -5.968750 -34.648918 155 155 155
9.093750 -5.968750 -34.648918 155 155 155
9.156250 -5.968750 -34.648918 155 155 155
9.218750 -5.968750 -34.648918 155 155 155
9.281250 -5.968750 -34.648918 155 155 155
9.343750 -5.968750 -34.648918 155 155 155
9.406250 -5.968750 -34.648918 155 155 155
9.468750 -5.968750 -34.648918 155 155 155
9.531250 -5.968750 -34.648918 155 155 155
9.593750 -5.968750 -34.648918 155 155 155
9.656250 -5.968750 -34.648918 155 155 155
9.718750 -5.968750 -34.648918 155 155 155
9.781250 -5.968750 -34.648918 155 155 155
9.843750 -5.968750 -34.648918 155 155 155
9.906250 -5.968750 -34.648918 155 155 155
9.968750 -5.968750 -34.648918 155 155 155
10.031250 -5.968750 -34.648918 155 155 155
10.093750 -5.968750 -34.648918 155 155 155
10.156250 -5.968750 -34.648918 155 155 155
10.218750 -5.968750 -34.648918 155 155 155
10.281250 -5.968750 -34.648918 155 155 155
10.343750 -5.968750 -34.648918 155 155 155
10.406250 -5.968750 -34.648918 155 155 155
10.468750 -5.968750 -34.648918 155 155 155
10.531250 -5.968750 -34.648918 155 155 155
10.593750 -5.968750 -34.648918 155 155 155
10.656250 -5.968750 -34.648918 155 155 155
10.718750 -5.968750 -34.648918 155 155 155
10.781250 -5.968750 -34.648918 155 155 155
10.843750 -5.968750 -34.648918 155 155 155
10.906250 -5.968750 -34.648918 155 155 155
10.968750 -5.968750 -34.648918 155 155 155
11.031250 -5.968750 -34.648918 155 155 155
11.093750 -5.968750 -34.648918 155 155 155
11.156250 -5.968750 -34.648918 155 155 155
11.218750 -5.968750 -34.648918 155 155 155
11.281250 -5.968750 -34.648918 155 155 155
11.343750 -5.968750 -34.648918 155 155 155
11.406250 -5.968750 -34.648918 155 155 155
11.468750 -5.968750 -34.648918 155 155 155
11.531250 -5.968750 -34.648918 155 155 155
11.593750 -5.968750 -34.648918 155 155 155
11.656250 -5.968750 -34.648918 155 155 155
11.718750 -5.968750 -34.648918 155 155 155
11.781250 -5.968750 -34.648918 155 155 155
11.843750 -5.968750 -34.648918 155 155 155
11.906250 -5.968750 -34.648918 155 155 155
11.968750 -5.968750 -34.648918 155 155 155
12.031250 -5.968750 -34.648918 155 155 155
12.093750 -5.968750 -34.648918 155 155 155
12.156250 -5.968750 -34.648918 155 155 155
12.406250 -5.968750 -34.648918 155 155 155
12.468750 -5.968750 -34.648918 155 155 155
12.531250 -5.968750 -34.648918 155 155 155
12.593750 -5.968750 -34.648918 155 155 155
12.656250 -5.968750 -34.648918 155 155 155
12.718750 -5.968750 -34.648918 155 155 155
12.781250 -5.968750 -34.648918 155 155 155
12.843750 -5.968750 -34.648918 155 155 155
13.343750 -5.968750 -34.648918 155 155 155
13.406250 -5.968750 -34.648918 155 155 155
15.968750 -5.968750 -34.648918 155 155 155
16.031250 -5.968750 -34.648918 155 155 155
16.093750 -5.968750 -34.648918 155 155 155
16.156250 -5.968750 -34.648918 155 155 155
17.218750 -5.968750 -34.648918 155 155 155
17.281250 -5.968750 -34.648918 155 155 155
17.343750 -5.968750 -34.648918 155 155 155
17.406250 -5.968750 -34.648918 155 155 155
17.468750 -5.968750 -34.648918 155 155 155
17.531250 -5.968750 -34.648918 155 155 155
17.593750 -5.968750 -34.648918 155 155 155
17.656250 -5.968750 -34.648918 155 155 155
17.718750 -5.968750 -34.648918 155 155 155
17.781250 -5.968750 -34.648918 155 155 155
17.843750 -5.968750 -34.648918 155 155 155
17.906250 -5.968750 -34.648918 155 155 155
17.968750 -5.968750 -34.648918 155 155 155
18.031250 -5.968750 -34.648918 155 155 155
18.093750 -5.968750 -34.648918 155 155 155
18.156250 -5.968750 -34.648918 155 155 155
-1.878378 -0.869369 -4.994439 155 155 155
-1.869369 -0.869369 -4.994439 155 155 155
-6.966887 -5.112583 -29.371269 155 155 155
-6.868421 -5.078948 -29.178036 155 155 155
-6.556962 -4.886076 -28.070009 155 155 155
-6.993197 -5.251701 -30.170486 155 155 155
-7.058824 -5.342561 -30.692467 155 155 155
-6.767123 -5.287671 -30.377134 155 155 155
-6.416667 -5.361111 -30.799038 155 155 155
-6.361111 -5.361111 -30.799038 155 155 155
-5.896104 -5.012987 -28.799101 155 155 155
-5.577287 -4.870663 -27.981461 155 155 155
-0.906250 -6.031250 -34.648918 51 51 51
-0.763251 -5.455831 -31.343191 48 48 48
-0.689655 -5.324138 -30.586632 19 19 19
-0.634483 -5.324138 -30.586632 15 15 15
0.156250 -6.031250 -34.648918 11 11 11
0.218750 -6.031250 -34.648918 11 11 11
0.781250 -6.031250 -34.648918 11 11 11
0.843750 -6.031250 -34.648918 11 11 11
3.391813 -4.514620 -25.936033 101 101 101
0.662162 -0.869369 -4.994439 155 155 155
0.671171 -0.869369 -4.994439 155 155 155
0.680180 -0.869369 -4.994439 155 155 155
0.689189 -0.869369 -4.994439 155 155 155
6.093750 -6.031250 -34.648918 155 155 155
6.156250 -6.031250 -34.648918 155 155 155
6.218750 -6.031250 -34.648918 155 155 155
6.281250 -6.031250 -34.648918 155 155 155
6.343750 -6.031250 -34.648918 155 155 155
6.406250 -6.031250 -34.648918 155 155 155
6.468750 -6.031250 -34.648918 155 155 155
6.531250 -6.031250 -34.648918 155 155 155
6.593750 -6.031250 -34.648918 155 155 155
6.656250 -6.031250 -34.648918 155 155 155
6.718750 -6.031250 -34.648918 155 155 155
6.781250 -6.031250 -34.648918 155 155 155
6.843750 -6.031250 -34.648918 155 155 155
6.906250 -6.031250 -34.648918 155 155 155
6.968750 -6.031250 -34.648918 155 155 155
7.031250 -6.031250 -34.648918 155 155 155
7.093750 -6.031250 -34.648918 155 155 155
7.156250 -6.031250 -34.648918 155 155 155
7.218750 -6.031250 -34.648918 155 155 155
7.281250 -6.031250 -34.648918 155 155 155
7.343750 -6.031250 -34.648918 155 155 155
7.406250 -6.031250 -34.648918 155 155 155
7.468750 -6.031250 -34.648918 155 155 155
7.531250 -6.031250 -34.648918 155 155 155
7.593750 -6.031250 -34.648918 155 155 155
8.156250 -6.031250 -34.648918 155 155 155
8.218750 -6.031250 -34.648918 155 155 155
8.281250 -6.031250 -34.648918 155 155 155
8.343750 -6.031250 -34.648918 155 155 155
8.406250 -6.031250 -34.648918 155 155 155
8.468750 -6.031250 -34.648918 155 155 155
8.531250 -6.031250 -34.648918 155 155 155
8.593750 -6.031250 -34.648918 155 155 155
8.656250 -6.031250 -34.648918 155 155 155
8.718750 -6.031250 -34.648918 155 155 155
8.781250 -6.031250 -34.648918 155 155 155
8.843750 -6.031250 -34.648918 155 155 155
8.906250 -6.031250 -34.648918 155 155 155
8.968750 -6.031250 -34.648918 155 155 155
9.031250 -6.031250 -34.648918 155 155 155
9.093750 -6.031250 -34.648918 155 155 155
9.156250 -6.031250 -34.648918 155 155 155
9.218750 -6.031250 -34.648918 155 155 155
9.281250 -6.031250 -34.648918 155 155 155
9.343750 -6.031250 -34.648918 155 155 155
9.406250 -6.031250 -34.648918 155 155 155
9.468750 -6.031250 -34.648918 155 155 155
9.531250 -6.031250 -34.648918 155 155 155
9.593750 -6.031250 -34.648918 155 155 155
9.656250 -6.031250 -34.648918 155 155 155
9.718750 -6.031250 -34.648918 155 155 155
9.781250 -6.031250 -34.648918 155 155 155
9.843750 -6.031250 -34.648918 155 155 155
9.906250 -6.031250 -34.648918 155 155 155
9.968750 -6.031250 -34.648918 155 155 155
10.031250 -6.031250 -34.648918 155 155 155
10.093750 -6.031250 -34.648918 155 155 155
10.156250 -6.031250 -34.648918 155 155 155
10.218750 -6.031250 -34.648918 155 155 155
10.281250 -6.031250 -34.648918 155 155 155
10.343750 -6.031250 -34.648918 155 155 155
10.406250 -6.031250 -34.648918 155 155 155
10.468750 -6.031250 -34.648918 155 155 155
10.531250 -6.031250 -34.648918 155 155 155
10.593750 -6.031250 -34.648918 155 155 155
10.656250 -6.031250 -34.648918 155 155 155
10.718750 -6.031250 -34.648918 155 155 155
10.781250 -6.031250 -34.648918 155 155 155
10.843750 -6.031250 -34.648918 155 155 155
10.906250 -6.031250 -34.648918 155 155 155
10.968750 -6.031250 -34.648918 155 155 155
11.031250 -6.031250 -34.648918 155 155 155
11.093750 -6.031250 -34.648918 155 155 155
11.156250 -6.031250 -34.648918 155 155 155
11.218750 -6.031250 -34.648918 155 155 155
11.281250 -6.031250 -34.648918 155 155 155
11.343750 -6.031250 -34.648918 155 155 155
11.406250 -6.031250 -34.648918 155 155 155
11.468750 -6.031250 -34.648918 155 155 155
11.531250 -6.031250 -34.648918 155 155 155
11.593750 -6.031250 -34.648918 155 155 155
11.656250 -6.031250 -34.648918 155 155 155
11.718750 -6.031250 -34.648918 155 155 155
11.781250 -6.031250 -34.648918 155 155 155
11.843750 -6.031250 -34.648918 155 155 155
11.906250 -6.031250 -34.648918 155 155 155
11.968750 -6.031250 -34.648918 155 155 155
12.031250 -6.031250 -34.648918 155 155 155
12.093750 -6.031250 -34.648918 155 155 155
12.156250 -6.031250 -34.648918 155 155 155
12.406250 -6.031250 -34.648918 155 155 155
12.468750 -6.031250 -34.648918 155 155 155
12.531250 -6.031250 -34.648918 155 155 155
12.593750 -6.031250 -34.648918 155 155 155
12.656250 -6.031250 -34.648918 155 155 155
12.718750 -6.031250 -34.648918 155 155 155
12.781250 -6.031250 -34.648918 155 155 155
12.843750 -6.031250 -34.648918 155 155 155
13.343750 -6.031250 -34.648918 155 155 155
13.406250 -6.031250 -34.648918 155 155 155
15.968750 -6.031250 -34.648918 155 155 155
16.031250 -6.031250 -34.648918 155 155 155
16.093750 -6.031250 -34.648918 155 155 155
16.156250 -6.031250 -34.648918 155 155 155
17.218750 -6.031250 -34.648918 155 155 155
17.281250 -6.031250 -34.648918 155 155 155
17.343750 -6.031250 -34.648918 155 155 155
17.406250 -6.031250 -34.648918 155 155 155
17.468750 -6.031250 -34.648918 155 155 155
17.531250 -6.031250 -34.648918 155 155 155
17.593750 -6.031250 -34.648918 155 155 155
17.656250 -6.031250 -34.648918 155 155 155
17.718750 -6.031250 -34.648918 155 155 155
17.781250 -6.031250 -34.648918 155 155 155
17.843750 -6.031250 -34.648918 155 155 155
17.906250 -6.031250 -34.648918 155 155 155
17.968750 -6.031250 -34.648918 155 155 155
18.031250 -6.031250 -34.648918 155 155 155
18.093750 -6.031250 -34.648918 155 155 155
18.156250 -6.031250 -34.648918 155 155 155
-1.878378 -0.878378 -4.994439 155 155 155
-1.869369 -0.878378 -4.994439 155 155 155
-8.175824 -5.714286 -32.491295 155 155 155
-7.416667 -5.416667 -30.799038 155 155 155
-7.138047 -5.252525 -29.865734 155 155 155
-6.921052 -5.131579 -29.178036 155 155 155
-6.649682 -4.968153 -28.248800 155 155 155
-6.598726 -4.968153 -28.248800 155 155 155
-6.993197 -5.306122 -30.170486 155 155 155
-7.058824 -5.397924 -30.692467 155 155 155
-7.003460 -5.397924 -30.692467 155 155 155
-6.900343 -5.360825 -30.481522 155 155 155
-6.821918 -5.342466 -30.377134 155 155 155
-6.698305 -5.288136 -30.068214 155 155 155
-6.712329 -5.342466 -30.377134 155 155 155
-6.750000 -5.416667 -30.799038 155 155 155
-6.694445 -5.416667 -30.799038 155 155 155
-6.638889 -5.416667 -30.799038 155 155 155
-6.583333 -5.416667 -30.799038 155 155 155
-6.787004 -5.631769 -32.022106 155 155 155
-6.729242 -5.631769 -32.022106 155 155 155
-6.416667 -5.416667 -30.799038 155 155 155
-6.361111 -5.416667 -30.799038 155 155 155
-6.093960 -5.234900 -29.765514 155 155 155
-5.844156 -5.064935 -28.799101 155 155 155
-5.663492 -4.952381 -28.159121 155 155 155
-5.612699 -4.952381 -28.159121 155 155 155
-5.561905 -4.952381 -28.159121 155 155 155
-1.156250 -6.093750 -34.648918 4 4 4
-1.093750 -6.093750 -34.648918 5 5 5
-1.031250 -6.093750 -34.648918 4 4 4
-0.968750 -6.093750 -34.648918 4 4 4
-0.859259 -5.777778 -32.852306 4 4 4
-0.744828 -5.379310 -30.586632 4 4 4
-0.664452 -5.182724 -29.468847 1 1 1
-0.605263 -5.131579 -29.178036 3 3 3
-0.558140 -5.182724 -29.468847 0 0 0
-0.093750 -6.093750 -34.648918 1 1 1
-0.031250 -6.093750 -34.648918 2 2 2
0.031250 -6.093750 -34.648918 0 0 0
0.093750 -6.093750 -34.648918 0 0 0
0.156250 -6.093750 -34.648918 2 2 2
0.218750 -6.093750 -34.648918 1 1 1
0.281250 -6.093750 -34.648918 1 1 1
0.343750 -6.093750 -34.648918 0 0 0
0.406250 -6.093750 -34.648918 0 0 0
0.468750 -6.093750 -34.648918 0 0 0
0.531250 -6.093750 -34.648918 0 0 0
0.593750 -6.093750 -34.648918 0 0 0
0.656250 -6.093750 -34.648918 0 0 0
0.718750 -6.093750 -34.648918 0 0 0
0.781250 -6.093750 -34.648918 0 0 0
0.843750 -6.093750 -34.648918 2 2 2
0.906250 -6.093750 -34.648918 1 1 1
0.968750 -6.093750 -34.648918 0 0 0
0.992481 -5.864662 -33.346329 0 0 0
1.561644 -5.342466 -30.377134 0 0 0
2.026316 -5.131579 -29.178036 1 1 1
2.072131 -5.114754 -29.082371 1 1 1
2.312292 -5.182724 -29.468847 0 0 0
2.365448 -5.182724 -29.468847 1 1 1
2.510345 -5.379310 -30.586632 1 1 1
2.565517 -5.379310 -30.586632 1 1 1
2.533333 -5.200000 -29.567078 1 1 1
2.586667 -5.200000 -29.567078 1 1 1
2.775000 -4.875000 -27.719135 0 0 0
2.963934 -5.114754 -29.082371 0 0 0
3.016393 -5.114754 -29.082371 1 1 1
3.068852 -5.114754 -29.082371 1 1 1
3.111111 -5.098039 -28.987329 0 0 0
3.484321 -5.435540 -30.906353 1 1 1
3.386667 -5.200000 -29.567078 2 2 2
3.405941 -5.148515 -29.274334 3 3 3
3.588040 -5.182724 -29.468847 1 1 1
3.617162 -5.148515 -29.274334 0 0 0
3.633987 -5.098039 -28.987329 1 1 1
3.627010 -5.016077 -28.521296 2 2 2
3.575000 -4.875000 -27.719135 7 7 7
3.391813 -4.561403 -25.936033 9 9 9
3.312676 -4.394366 -24.986261 15 15 15
3.348315 -4.382022 -24.916077 30 30 30
6.093750 -6.093750 -34.648918 155 155 155
6.156250 -6.093750 -34.648918 155 155 155
6.218750 -6.093750 -34.648918 155 155 155
6.281250 -6.093750 -34.648918 155 155 155
6.343750 -6.093750 -34.648918 155 155 155
6.406250 -6.093750 -34.648918 155 155 155
6.468750 -6.093750 -34.648918 155 155 155
6.531250 -6.093750 -34.648918 155 155 155
6.593750 -6.093750 -34.648918 155 155 155
6.656250 -6.093750 -34.648918 155 155 155
6.718750 -6.093750 -34.648918 155 155 155
6.781250 -6.093750 -34.648918 155 155 155
6.843750 -6.093750 -34.648918 155 155 155
6.906250 -6.093750 -34.648918 155 155 155
6.968750 -6.093750 -34.648918 155 155 155
7.031250 -6.093750 -34.648918 155 155 155
7.093750 -6.093750 -34.648918 155 155 155
7.156250 -6.093750 -34.648918 155 155 155
7.218750 -6.093750 -34.648918 155 155 155
7.281250 -6.093750 -34.648918 155 155 155
7.343750 -6.093750 -34.648918 155 155 155
7.406250 -6.093750 -34.648918 155 155 155
7.468750 -6.093750 -34.648918 155 155 155
7.531250 -6.093750 -34.648918 155 155 155
7.593750 -6.093750 -34.648918 155 155 155
8.156250 -6.093750 -34.648918 155 155 155
8.218750 -6.093750 -34.648918 155 155 155
8.281250 -6.093750 -34.648918 155 155 155
8.343750 -6.093750 -34.648918 155 155 155
8.406250 -6.093750 -34.648918 155 155 155
8.468750 -6.093750 -34.648918 155 155 155
8.531250 -6.093750 -34.648918 155 155 155
8.593750 -6.093750 -34.648918 155 155 155
8.656250 -6.093750 -34.648918 155 155 155
8.718750 -6.093750 -34.648918 155 155 155
8.781250 -6.093750 -34.648918 155 155 155
8.843750 -6.093750 -34.648918 155 155 155
8.906250 -6.093750 -34.648918 155 155 155
8.968750 -6.093750 -34.648918 155 155 155
9.031250 -6.093750 -34.648918 155 155 155
9.093750 -6.093750 -34.648918 155 155 155
9.156250 -6.093750 -34.648918 155 155 155
9.218750 -6.093750 -34.648918 155 155 155
9.281250 -6.093750 -34.648918 155 155 155
9.343750 -6.093750 -34.648918 155 155 155
9.406250 -6.093750 -34.648918 155 155 155
9.468750 -6.093750 -34.648918 155 155 155
9.531250 -6.093750 -34.648918 155 155 155
9.593750 -6.093750 -34.648918 155 155 155
9.656250 -6.093750 -34.648918 155 155 155
9.718750 -6.093750 -34.648918 155 155 155
9.781250 -6.093750 -34.648918 155 155 155
9.843750 -6.093750 -34.648918 155 155 155
9.906250 -6.093750 -34.648918 155 155 155
9.968750 -6.093750 -34.648918 155 155 155
10.031250 -6.093750 -34.648918 155 155 155
10.093750 -6.093750 -34.648918 155 155 155
10.156250 -6.093750 -34.648918 155 155 155
10.218750 -6.093750 -34.648918 155 155 155
10.281250 -6.093750 -34.648918 155 155 155
10.343750 -6.093750 -34.648918 155 155 155
10.406250 -6.093750 -34.648918 155 155 155
10.468750 -6.093750 -34.648918 155 155 155
10.531250 -6.093750 -34.648918 155 155 155
10.593750 -6.093750 -34.648918 155 155 155
10.656250 -6.093750 -34.648918 155 155 155
10.718750 -6.093750 -34.648918 155 155 155
10.781250 -6.093750 -34.648918 155 155 155
10.843750 -6.093750 -34.648918 155 155 155
10.906250 -6.093750 -34.648918 155 155 155
10.968750 -6.093750 -34.648918 155 155 155
11.031250 -6.093750 -34.648918 155 155 155
11.093750 -6.093750 -34.648918 155 155 155
11.156250 -6.093750 -34.648918 155 155 155
11.218750 -6.093750 -34.648918 155 155 155
11.281250 -6.093750 -34.648918 155 155 155
11.343750 -6.093750 -34.648918 155 155 155
11.406250 -6.093750 -34.648918 155 155 155
11.468750 -6.093750 -34.648918 155 155 155
11.531250 -6.093750 -34.648918 155 155 155
11.593750 -6.093750 -34.648918 155 155 155
11.656250 -6.093750 -34.648918 155 155 155
11.718750 -6.093750 -34.648918 155 155 155
11.781250 -6.093750 -34.648918 155 155 155
11.843750 -6.093750 -34.648918 155 155 155
11.906250 -6.093750 -34.648918 155 155 155
11.968750 -6.093750 -34.648918 155 155 155
12.031250 -6.093750 -34.648918 155 155 155
12.093750 -6.093750 -34.648918 155 155 155
12.156250 -6.093750 -34.648918 155 155 155
12.406250 -6.093750 -34.648918 155 155 155
12.468750 -6.093750 -34.648918 155 155 155
12.531250 -6.093750 -34.648918 155 155 155
12.593750 -6.093750 -34.648918 155 155 155
12.656250 -6.093750 -34.648918 155 155 155
12.718750 -6.093750 -34.648918 155 155 155
12.781250 -6.093750 -34.648918 155 155 155
12.843750 -6.093750 -34.648918 155 155 155
13.343750 -6.093750 -34.648918 155 155 155
13.406250 -6.093750 -34.648918 155 155 155
15.968750 -6.093750 -34.648918 155 155 155
16.031250 -6.093750 -34.648918 155 155 155
16.093750 -6.093750 -34.648918 155 155 155
16.156250 -6.093750 -34.648918 155 155 155
17.218750 -6.093750 -34.648918 155 155 155
17.281250 -6.093750 -34.648918 155 155 155
17.343750 -6.093750 -34.648918 155 155 155
17.406250 -6.093750 -34.648918 155 155 155
17.468750 -6.093750 -34.648918 155 155 155
17.531250 -6.093750 -34.648918 155 155 155
17.593750 -6.093750 -34.648918 155 155 155
17.656250 -6.093750 -34.648918 155 155 155
17.718750 -6.093750 -34.648918 155 155 155
17.781250 -6.093750 -34.648918 155 155 155
17.843750 -6.093750 -34.648918 155 155 155
17.906250 -6.093750 -34.648918 155 155 155
17.968750 -6.093750 -34.648918 155 155 155
18.031250 -6.093750 -34.648918 155 155 155
18.093750 -6.093750 -34.648918 155 155 155
18.156250 -6.093750 -34.648918 155 155 155
-1.878378 -0.887387 -4.994439 155 155 155
-1.869369 -0.887387 -4.994439 155 155 155
-8.175824 -5.772894 -32.491295 155 155 155
-8.117216 -5.772894 -32.491295 155 155 155
-7.580420 -5.510489 -31.014416 155 155 155
-7.524476 -5.510489 -31.014416 155 155 155
-7.416667 -5.472222 -30.799038 155 155 155
-7.138047 -5.306397 -29.865734 155 155 155
-6.966887 -5.218543 -29.371269 155 155 155
-6.868421 -5.184210 -29.178036 155 155 155
-6.860927 -5.218543 -29.371269 155 155 155
-6.993197 -5.360544 -30.170486 155 155 155
-7.058824 -5.453287 -30.692467 155 155 155
-7.003460 -5.453287 -30.692467 155 155 155
-6.900343 -5.415808 -30.481522 155 155 155
-6.821918 -5.397260 -30.377134 155 155 155
-6.698305 -5.342373 -30.068214 155 155 155
-6.712329 -5.397260 -30.377134 155 155 155
-6.750000 -5.472222 -30.799038 155 155 155
-6.694445 -5.472222 -30.799038 155 155 155
-6.729242 -5.689531 -32.022106 155 155 155
-6.416667 -5.472222 -30.799038 155 155 155
-6.361111 -5.472222 -30.799038 155 155 155
-6.093960 -5.288590 -29.765514 155 155 155
-5.863192 -5.133551 -28.892908 155 155 155
-5.773463 -5.100324 -28.705900 155 155 155
-5.721683 -5.100324 -28.705900 155 155 155
-1.218750 -6.156250 -34.648918 0 0 0
-1.156250 -6.156250 -34.648918 3 3 3
-1.093750 -6.156250 -34.648918 0 0 0
-1.031250 -6.156250 -34.648918 2 2 2
-0.968750 -6.156250 -34.648918 0 0 0
-0.859259 -5.837037 -32.852306 0 0 0
-0.794118 -5.794117 -32.610748 4 4 4
-0.701754 -5.529825 -31.123240 0 0 0
-0.623729 -5.342373 -30.068214 3 3 3
-0.031250 -6.156250 -34.648918 0 0 0
0.031250 -6.156250 -34.648918 0 0 0
0.093750 -6.156250 -34.648918 0 0 0
0.156250 -6.156250 -34.648918 1 1 1
0.218750 -6.156250 -34.648918 0 0 0
0.281250 -6.156250 -34.648918 0 0 0
0.343750 -6.156250 -34.648918 1 1 1
0.406250 -6.156250 -34.648918 1 1 1
0.468750 -6.156250 -34.648918 1 1 1
0.531250 -6.156250 -34.648918 1 1 1
0.593750 -6.156250 -34.648918 1 1 1
0.656250 -6.156250 -34.648918 1 1 1
0.718750 -6.156250 -34.648918 1 1 1
0.781250 -6.156250 -34.648918 1 1 1
0.843750 -6.156250 -34.648918 0 0 0
0.906250 -6.156250 -34.648918 1 1 1
0.932331 -5.924812 -33.346329 0 0 0
0.970588 -5.794117 -32.610748 0 0 0
0.975610 -5.491289 -30.906353 2 2 2
1.031359 -5.491289 -30.906353 2 2 2
1.656250 -6.156250 -34.648918 1 1 1
1.506849 -5.397260 -30.377134 1 1 1
1.556314 -5.378839 -30.273457 1 1 1
1.843750 -6.156250 -34.648918 0 0 0
1.992565 -5.858736 -32.974434 0 0 0
2.156250 -6.156250 -34.648918 0 0 0
2.281250 -6.156250 -34.648918 0 0 0
1.980198 -5.201320 -29.274334 0 0 0
2.000000 -5.116883 -28.799101 1 1 1
2.051948 -5.116883 -28.799101 1 1 1
2.289474 -5.184210 -29.178036 0 0 0
2.342105 -5.184210 -29.178036 0 0 0
2.418605 -5.235880 -29.468847 0 0 0
2.522034 -5.342373 -30.068214 0 0 0
2.524917 -5.235880 -29.468847 0 0 0
2.552632 -5.184210 -29.178036 0 0 0
2.596721 -5.167213 -29.082371 0 0 0
2.927536 -5.710145 -32.138126 0 0 0
2.985507 -5.710145 -32.138126 0 0 0
2.886598 -5.415808 -30.481522 0 0 0
2.788274 -5.133551 -28.892908 0 0 0
2.777070 -5.019108 -28.248800 0 0 0
2.766355 -4.909657 -27.632782 0 0 0
2.963934 -5.167213 -29.082371 1 1 1
3.006536 -5.150327 -28.987329 0 0 0
3.029126 -5.100324 -28.705900 0 0 0
3.061093 -5.067524 -28.521296 1 1 1
3.132686 -5.100324 -28.705900 2 2 2
3.440559 -5.510489 -31.014416 2 2 2
3.484321 -5.491289 -30.906353 1 1 1
3.386667 -5.253334 -29.567078 0 0 0
3.405941 -5.201320 -29.274334 1 1 1
3.424837 -5.150327 -28.987329 0 0 0
3.477124 -5.150327 -28.987329 1 1 1
3.506494 -5.116883 -28.799101 1 1 1
3.501597 -5.035144 -28.339052 0 0 0
3.530159 -5.003175 -28.159121 0 0 0
3.503106 -4.894410 -27.546967 0 0 0
3.498471 -4.819572 -27.125759 1 1 1
3.391813 -4.608187 -25.936033 0 0 0
3.312676 -4.439436 -24.986261 0 0 0
3.348315 -4.426966 -24.916077 2 2 2
6.031250 -6.156250 -34.648918 155 155 155
6.093750 -6.156250 -34.648918 155 155 155
6.156250 -6.156250 -34.648918 155 155 155
6.218750 -6.156250 -34.648918 155 155 155
6.281250 -6.156250 -34.648918 155 155 155
6.343750 -6.156250 -34.648918 155 155 155
6.406250 -6.156250 -34.648918 155 155 155
6.468750 -6.156250 -34.648918 155 155 155
6.531250 -6.156250 -34.648918 155 155 155
6.593750 -6.156250 -34.648918 155 155 155
6.656250 -6.156250 -34.648918 155 155 155
6.718750 -6.156250 -34.648918 155 155 155
6.781250 -6.156250 -34.648918 155 155 155
6.843750 -6.156250 -34.648918 155 155 155
6.906250 -6.156250 -34.648918 155 155 155
6.968750 -6.156250 -34.648918 155 155 155
7.031250 -6.156250 -34.648918 155 155 155
7.093750 -6.156250 -34.648918 155 155 155
7.156250 -6.156250 -34.648918 155 155 155
7.218750 -6.156250 -34.648918 155 155 155
7.281250 -6.156250 -34.648918 155 155 155
7.343750 -6.156250 -34.648918 155 155 155
7.406250 -6.156250 -34.648918 155 155 155
7.468750 -6.156250 -34.648918 155 155 155
7.531250 -6.156250 -34.648918 155 155 155
7.593750 -6.156250 -34.648918 155 155 155
8.156250 -6.156250 -34.648918 155 155 155
8.218750 -6.156250 -34.648918 155 155 155
8.281250 -6.156250 -34.648918 155 155 155
8.343750 -6.156250 -34.648918 155 155 155
8.406250 -6.156250 -34.648918 155 155 155
8.468750 -6.156250 -34.648918 155 155 155
8.531250 -6.156250 -34.648918 155 155 155
8.593750 -6.156250 -34.648918 155 155 155
8.656250 -6.156250 -34.648918 155 155 155
8.718750 -6.156250 -34.648918 155 155 155
8.781250 -6.156250 -34.648918 155 155 155
8.843750 -6.156250 -34.648918 155 155 155
8.906250 -6.156250 -34.648918 155 155 155
8.968750 -6.156250 -34.648918 155 155 155
9.031250 -6.156250 -34.648918 155 155 155
9.093750 -6.156250 -34.648918 155 155 155
9.156250 -6.156250 -34.648918 155 155 155
9.218750 -6.156250 -34.648918 155 155 155
9.281250 -6.156250 -34.648918 155 155 155
9.343750 -6.156250 -34.648918 155 155 155
9.406250 -6.156250 -34.648918 155 155 155
9.468750 -6.156250 -34.648918 155 155 155
9.531250 -6.156250 -34.648918 155 155 155
9.593750 -6.156250 -34.648918 155 155 155
9.656250 -6.156250 -34.648918 155 155 155
9.718750 -6.156250 -34.648918 155 155 155
9.781250 -6.156250 -34.648918 155 155 155
9.843750 -6.156250 -34.648918 155 155 155
9.906250 -6.156250 -34.648918 155 155 155
9.968750 -6.156250 -34.648918 155 155 155
10.031250 -6.156250 -34.648918 155 155 155
10.093750 -6.156250 -34.648918 155 155 155
10.156250 -6.156250 -34.648918 155 155 155
10.218750 -6.156250 -34.648918 155 155 155
10.281250 -6.156250 -34.648918 155 155 155
10.343750 -6.156250 -34.648918 155 155 155
10.406250 -6.156250 -34.648918 155 155 155
10.468750 -6.156250 -34.648918 155 155 155
10.531250 -6.156250 -34.648918 155 155 155
10.593750 -6.156250 -34.648918 155 155 155
10.656250 -6.156250 -34.648918 155 155 155
10.718750 -6.156250 -34.648918 155 155 155
10.781250 -6.156250 -34.648918 155 155 155
10.843750 -6.156250 -34.648918 155 155 155
10.906250 -6.156250 -34.648918 155 155 155
10.968750 -6.156250 -34.648918 155 155 155
11.031250 -6.156250 -34.648918 155 155 155
11.093750 -6.156250 -34.648918 155 155 155
11.156250 -6.156250 -34.648918 155 155 155
11.218750 -6.156250 -34.648918 155 155 155
11.281250 -6.156250 -34.648918 155 155 155
11.343750 -6.156250 -34.648918 155 155 155
11.406250 -6.156250 -34.648918 155 155 155
11.468750 -6.156250 -34.648918 155 155 155
11.531250 -6.156250 -34.648918 155 155 155
11.593750 -6.156250 -34.648918 155 155 155
11.656250 -6.156250 -34.648918 155 155 155
11.718750 -6.156250 -34.648918 155 155 155
11.781250 -6.156250 -34.648918 155 155 155
11.843750 -6.156250 -34.648918 155 155 155
11.906250 -6.156250 -34.648918 155 155 155
11.968750 -6.156250 -34.648918 155 155 155
12.031250 -6.156250 -34.648918 155 155 155
12.093750 -6.156250 -34.648918 155 155 155
12.156250 -6.156250 -34.648918 155 155 155
12.406250 -6.156250 -34.648918 155 155 155
12.468750 -6.156250 -34.648918 155 155 155
12.531250 -6.156250 -34.648918 155 155 155
12.593750 -6.156250 -34.648918 155 155 155
12.656250 -6.156250 -34.648918 155 155 155
12.718750 -6.156250 -34.648918 155 155 155
12.781250 -6.156250 -34.648918 155 155 155
12.843750 -6.156250 -34.648918 155 155 155
13.343750 -6.156250 -34.648918 155 155 155
13.406250 -6.156250 -34.648918 155 155 155
15.968750 -6.156250 -34.648918 155 155 155
16.031250 -6.156250 -34.648918 155 155 155
16.093750 -6.156250 -34.648918 155 155 155
16.156250 -6.156250 -34.648918 155 155 155
17.218750 -6.156250 -34.648918 155 155 155
17.281250 -6.156250 -34.648918 155 155 155
17.343750 -6.156250 -34.648918 155 155 155
17.406250 -6.156250 -34.648918 155 155 155
17.468750 -6.156250 -34.648918 155 155 155
17.531250 -6.156250 -34.648918 155 155 155
17.593750 -6.156250 -34.648918 155 155 155
17.656250 -6.156250 -34.648918 155 155 155
17.718750 -6.156250 -34.648918 155 155 155
17.781250 -6.156250 -34.648918 155 155 155
17.843750 -6.156250 -34.648918 155 155 155
17.906250 -6.156250 -34.648918 155 155 155
17.968750 -6.156250 -34.648918 155 155 155
18.031250 -6.156250 -34.648918 155 155 155
18.093750 -6.156250 -34.648918 155 155 155
18.156250 -6.156250 -34.648918 155 155 155
-1.878378 -0.896396 -4.994439 155 155 155
-1.869369 -0.896396 -4.994439 155 155 155
-8.205882 -5.852941 -32.610748 155 155 155
-8.147058 -5.852941 -32.610748 155 155 155
-7.580420 -5.566433 -31.014416 155 155 155
-7.524476 -5.566433 -31.014416 155 155 155
-7.468532 -5.566433 -31.014416 155 155 155
-7.138047 -5.360270 -29.865734 155 155 155
-6.966887 -5.271523 -29.371269 155 155 155
-6.868421 -5.236842 -29.178036 155 155 155
-6.860927 -5.271523 -29.371269 155 155 155
-6.993197 -5.414966 -30.170486 155 155 155
-7.058824 -5.508650 -30.692467 155 155 155
-7.003460 -5.508650 -30.692467 155 155 155
-6.900343 -5.470790 -30.481522 155 155 155
-6.821918 -5.452055 -30.377134 155 155 155
-6.698305 -5.396610 -30.068214 155 155 155
-6.712329 -5.452055 -30.377134 155 155 155
-6.750000 -5.527778 -30.799038 155 155 155
-6.717770 -5.547039 -30.906353 155 155 155
-6.753623 -5.768116 -32.138126 155 155 155
-6.461538 -5.566433 -31.014416 155 155 155
-6.361111 -5.527778 -30.799038 155 155 155
-6.093960 -5.342282 -29.765514 155 155 155
-5.863192 -5.185668 -28.892908 155 155 155
-5.773463 -5.152103 -28.705900 155 155 155
-5.721683 -5.152103 -28.705900 155 155 155
-1.281250 -6.218750 -34.648918 0 0 0
-1.218750 -6.218750 -34.648918 0 0 0
-1.156250 -6.218750 -34.648918 0 0 0
-1.093750 -6.218750 -34.648918 0 0 0
-1.031250 -6.218750 -34.648918 1 1 1
-0.968750 -6.218750 -34.648918 2 2 2
-0.859259 -5.896297 -32.852306 1 1 1
-0.794118 -5.852941 -32.610748 0 0 0
0.031250 -6.218750 -34.648918 0 0 0
0.093750 -6.218750 -34.648918 1 1 1
0.156250 -6.218750 -34.648918 1 1 1
0.218750 -6.218750 -34.648918 1 1 1
0.281250 -6.218750 -34.648918 1 1 1
0.343750 -6.218750 -34.648918 0 0 0
0.406250 -6.218750 -34.648918 0 0 0
0.468750 -6.218750 -34.648918 0 0 0
0.531250 -6.218750 -34.648918 0 0 0
0.593750 -6.218750 -34.648918 0 0 0
0.656250 -6.218750 -34.648918 0 0 0
0.718750 -6.218750 -34.648918 0 0 0
0.781250 -6.218750 -34.648918 0 0 0
0.843750 -6.218750 -34.648918 0 0 0
0.906250 -6.218750 -34.648918 0 0 0
0.932331 -5.984962 -33.346329 0 0 0
0.970588 -5.852941 -32.610748 0 0 0
0.975610 -5.547039 -30.906353 0 0 0
1.031359 -5.547039 -30.906353 0 0 0
1.218750 -6.218750 -34.648918 0 0 0
1.281250 -6.218750 -34.648918 0 0 0
1.343750 -6.218750 -34.648918 0 0 0
1.406250 -6.218750 -34.648918 0 0 0
1.468750 -6.218750 -34.648918 1 1 1
1.531250 -6.218750 -34.648918 0 0 0
1.593750 -6.218750 -34.648918 1 1 1
1.582090 -5.940299 -33.097473 0 0 0
1.517241 -5.489655 -30.586632 0 0 0
1.556314 -5.433447 -30.273457 1 1 1
1.843750 -6.218750 -34.648918 0 0 0
1.906250 -6.218750 -34.648918 0 0 0
1.968750 -6.218750 -34.648918 0 0 0
1.925926 -5.896297 -32.852306 0 0 0
1.914286 -5.685714 -31.679010 0 0 0
1.971429 -5.685714 -31.679010 0 0 0
2.218750 -6.218750 -34.648918 0 0 0
2.281250 -6.218750 -34.648918 0 0 0
1.980198 -5.254126 -29.274334 0 0 0
2.000000 -5.168831 -28.799101 1 1 1
1.993691 -5.022082 -27.981461 1 1 1
2.044164 -5.022082 -27.981461 0 0 0
2.468401 -5.918216 -32.974434 1 1 1
2.236842 -5.236842 -29.178036 1 1 1
2.267101 -5.185668 -28.892908 1 1 1
2.311688 -5.168831 -28.799101 1 1 1
2.418605 -5.289037 -29.468847 1 1 1
2.522034 -5.396610 -30.068214 0 0 0
2.516556 -5.271523 -29.371269 0 0 0
2.527687 -5.185668 -28.892908 0 0 0
2.571429 -5.168831 -28.799101 0 0 0
2.631922 -5.185668 -28.892908 0 0 0
2.701639 -5.219672 -29.082371 0 0 0
