ply
        format ascii 1.0
        element vertex 85900
        property float x
        property float y
        property float z
        property uchar red
        property uchar green
        property uchar blue
        end_header
1.273786 -3.091262 -8.631688 155 155 155
1.279383 -3.067437 -8.565163 155 155 155
1.292308 -3.061538 -8.548691 155 155 155
1.287879 -3.015152 -8.419166 155 155 155
1.301798 -3.012299 -8.411201 155 155 155
1.298507 -2.970149 -8.293507 155 155 155
1.304912 -2.950881 -8.239702 155 155 155
1.306422 -2.921101 -8.156549 155 155 155
1.315068 -2.907763 -8.119305 155 155 155
1.322434 -2.891917 -8.075058 155 155 155
1.333333 -2.884058 -8.053115 155 155 155
1.345389 -2.878843 -8.038552 155 155 155
1.345259 -2.847943 -7.952271 155 155 155
1.357143 -2.842857 -7.938070 155 155 155
1.370205 -2.840321 -7.930989 155 155 155
1.378330 -2.827709 -7.895772 155 155 155
1.376646 -2.795434 -7.805653 155 155 155
1.375000 -2.763889 -7.717568 155 155 155
1.388889 -2.763889 -7.717568 155 155 155
1.396716 -2.751945 -7.684216 155 155 155
1.394872 -2.721368 -7.598836 155 155 155
1.401361 -2.707483 -7.560067 155 155 155
1.404219 -2.686920 -7.502649 155 155 155
1.417722 -2.686920 -7.502649 155 155 155
1.430017 -2.684654 -7.496323 155 155 155
1.425479 -2.651124 -7.402697 155 155 155
1.430464 -2.635761 -7.359800 155 155 155
1.434211 -2.618421 -7.311380 155 155 155
1.447368 -2.618421 -7.311380 155 155 155
1.459326 -2.616270 -7.305373 155 155 155
1.460473 -2.594947 -7.245834 155 155 155
1.462783 -2.576052 -7.193073 155 155 155
1.470968 -2.567742 -7.169870 155 155 155
1.474359 -2.551282 -7.123909 155 155 155
1.481245 -2.541101 -7.095482 155 155 155
1.481013 -2.518987 -7.033733 155 155 155
1.476153 -2.489445 -6.951242 155 155 155
1.487500 -2.487500 -6.945811 155 155 155
1.501173 -2.489445 -6.951242 155 155 155
1.528505 -2.453005 -6.849491 155 155 155
1.476015 -2.349816 -6.561357 155 155 155
1.485630 -2.346352 -6.551687 155 155 155
1.499631 -2.349816 -6.561357 155 155 155
1.506990 -2.342899 -6.542045 155 155 155
1.482759 -2.287356 -6.386953 155 155 155
1.494253 -2.287356 -6.386953 155 155 155
1.493942 -2.269423 -6.336877 155 155 155
1.522711 -2.295602 -6.409977 155 155 155
1.530935 -2.290648 -6.396143 155 155 155
1.550253 -2.302242 -6.428517 155 155 155
1.553957 -2.290648 -6.396143 155 155 155
1.557624 -2.279170 -6.364093 155 155 155
1.556818 -2.261364 -6.314374 155 155 155
1.564848 -2.256556 -6.300949 155 155 155
1.561798 -2.235955 -6.243426 155 155 155
1.571930 -2.234386 -6.239045 155 155 155
1.576520 -2.225018 -6.212885 155 155 155
1.587701 -2.225018 -6.212885 155 155 155
1.588889 -2.211111 -6.174055 155 155 155
1.587870 -2.194349 -6.127249 155 155 155
1.592313 -2.185312 -6.102017 155 155 155
1.600000 -2.180822 -6.089478 155 155 155
1.597826 -2.163043 -6.039836 155 155 155
1.605424 -2.158644 -6.027552 155 155 155
1.602151 -2.139785 -5.974892 155 155 155
1.612903 -2.139785 -5.974892 155 155 155
1.623656 -2.139785 -5.974892 155 155 155
1.634409 -2.139785 -5.974892 155 155 155
1.633089 -2.124083 -5.931046 155 155 155
1.623188 -2.097497 -5.856811 155 155 155
1.629435 -2.091984 -5.841418 155 155 155
1.629243 -2.078329 -5.803289 155 155 155
1.635417 -2.072917 -5.788176 155 155 155
1.645833 -2.072917 -5.788176 155 155 155
1.642350 -2.055520 -5.739599 155 155 155
1.646302 -2.047588 -5.717453 155 155 155
1.652341 -2.042335 -5.702783 155 155 155
1.653061 -2.030612 -5.670050 155 155 155
1.663265 -2.030612 -5.670050 155 155 155
1.672403 -2.029318 -5.666436 155 155 155
1.666667 -2.010101 -5.612777 155 155 155
1.675710 -2.008833 -5.609236 155 155 155
1.681561 -2.003776 -5.595116 155 155 155
1.680000 -1.990000 -5.556649 155 155 155
1.673267 -1.970297 -5.501633 155 155 155
1.668712 -1.953374 -5.454380 155 155 155
1.677498 -1.952177 -5.451035 155 155 155
1.685242 -1.949786 -5.444359 155 155 155
1.691931 -1.946210 -5.434376 155 155 155
1.689320 -1.932039 -5.394805 155 155 155
1.680672 -1.911165 -5.336518 155 155 155
1.689262 -1.910018 -5.333316 155 155 155
1.697842 -1.908873 -5.330119 155 155 155
1.695238 -1.895238 -5.292047 155 155 155
1.704762 -1.895238 -5.292047 155 155 155
1.711230 -1.891860 -5.282614 155 155 155
1.707547 -1.877358 -5.242122 155 155 155
1.715969 -1.876252 -5.239033 155 155 155
1.708285 -1.857643 -5.187070 155 155 155
1.701734 -1.840462 -5.139098 155 155 155
1.709994 -1.839399 -5.136128 155 155 155
1.708381 -1.827784 -5.103696 155 155 155
1.716581 -1.826735 -5.100768 155 155 155
1.723782 -1.824642 -5.094922 155 155 155
1.730967 -1.822553 -5.089089 155 155 155
1.727273 -1.809091 -5.051499 155 155 155
1.720721 -1.792793 -5.005990 155 155 155
1.729730 -1.792793 -5.005990 155 155 155
1.738739 -1.792793 -5.005990 155 155 155
1.747748 -1.792793 -5.005990 155 155 155
1.756757 -1.792793 -5.005990 155 155 155
1.765766 -1.792793 -5.005990 155 155 155
1.774775 -1.792793 -5.005990 155 155 155
1.783784 -1.792793 -5.005990 155 155 155
1.792793 -1.792793 -5.005990 155 155 155
1.801802 -1.792793 -5.005990 155 155 155
1.810811 -1.792793 -5.005990 155 155 155
1.819820 -1.792793 -5.005990 155 155 155
2.993733 -2.850492 -7.959390 155 155 155
2.973451 -2.817699 -7.867822 155 155 155
2.987611 -2.817699 -7.867822 155 155 155
2.457183 -2.253362 -6.292030 155 155 155
2.468507 -2.253362 -6.292030 155 155 155
3.329650 -2.931860 -8.186592 155 155 155
3.344383 -2.931860 -8.186592 155 155 155
3.304348 -2.884058 -8.053115 155 155 155
2.096110 -1.821510 -5.086178 155 155 155
2.100457 -1.817352 -5.074565 155 155 155
2.081081 -1.792793 -5.005990 155 155 155
2.090090 -1.792793 -5.005990 155 155 155
2.196818 -1.876252 -5.239033 155 155 155
2.312083 -1.933212 -5.398080 155 155 155
2.321797 -1.933212 -5.398080 155 155 155
2.321645 -1.925030 -5.375235 155 155 155
2.302089 -1.900895 -5.307844 155 155 155
2.287064 -1.880685 -5.251411 155 155 155
2.275015 -1.863078 -5.202246 155 155 155
2.284377 -1.863078 -5.202246 155 155 155
2.271147 -1.844728 -5.151007 155 155 155
2.242735 -1.814245 -5.065891 155 155 155
2.250570 -1.813212 -5.063006 155 155 155
2.259681 -1.813212 -5.063006 155 155 155
2.333333 -1.842593 -5.145046 155 155 155
2.334487 -1.836217 -5.127243 155 155 155
2.315670 -1.814245 -5.065891 155 155 155
2.297297 -1.792793 -5.005990 155 155 155
2.306306 -1.792793 -5.005990 155 155 155
2.315315 -1.792793 -5.005990 155 155 155
2.324324 -1.792793 -5.005990 155 155 155
2.333333 -1.792793 -5.005990 155 155 155
3.132530 -2.397590 -6.694758 155 155 155
3.144578 -2.397590 -6.694758 155 155 155
2.421721 -1.839399 -5.136128 155 155 155
2.407323 -1.821510 -5.086178 155 155 155
2.398637 -1.808064 -5.048631 155 155 155
2.407723 -1.808064 -5.048631 155 155 155
3.166667 -2.369048 -6.615058 155 155 155
3.178571 -2.369048 -6.615058 155 155 155
3.152941 -2.341177 -6.537234 155 155 155
3.160059 -2.337739 -6.527635 155 155 155
3.139535 -2.313953 -6.461220 155 155 155
3.128427 -2.297258 -6.414602 155 155 155
3.097509 -2.266192 -6.327857 155 155 155
3.071730 -2.239100 -6.252207 155 155 155
3.082982 -2.239100 -6.252207 155 155 155
3.085554 -2.232819 -6.234670 155 155 155
3.043418 -2.194349 -6.127249 155 155 155
3.019073 -2.168937 -6.056293 155 155 155
2.993271 -2.142665 -5.982933 155 155 155
2.968085 -2.117021 -5.911329 155 155 155
2.978723 -2.117021 -5.911329 155 155 155
2.981432 -2.111406 -5.895649 155 155 155
2.788461 -1.913462 -5.342932 155 155 155
2.776386 -1.898628 -5.301514 155 155 155
2.754717 -1.877358 -5.242122 155 155 155
2.764151 -1.877358 -5.242122 155 155 155
2.754098 -1.864169 -5.205292 155 155 155
2.725173 -1.838337 -5.133163 155 155 155
2.715596 -1.825688 -5.097843 155 155 155
2.703072 -1.811149 -5.057246 155 155 155
2.712173 -1.811149 -5.057246 155 155 155
2.725926 -1.814245 -5.065891 155 155 155
2.735043 -1.814245 -5.065891 155 155 155
2.736364 -1.809091 -5.051499 155 155 155
2.745455 -1.809091 -5.051499 155 155 155
2.845481 -1.856560 -5.184046 155 155 155
2.833333 -1.842593 -5.145046 155 155 155
2.806857 -1.819429 -5.080365 155 155 155
2.774775 -1.792793 -5.005990 155 155 155
2.783784 -1.792793 -5.005990 155 155 155
2.792793 -1.792793 -5.005990 155 155 155
2.801802 -1.792793 -5.005990 155 155 155
2.810811 -1.792793 -5.005990 155 155 155
2.868270 -1.823597 -5.092004 155 155 155
14.272727 -9.045455 -25.257496 155 155 155
14.867256 -9.392330 -26.226072 155 155 155
19.750000 -12.437500 -34.729057 155 155 155
19.812500 -12.437500 -34.729057 155 155 155
19.200001 -12.015095 -33.549580 155 155 155
17.722221 -11.055555 -30.870274 155 155 155
-1.873874 -1.801802 -5.005990 155 155 155
-1.864865 -1.801802 -5.005990 155 155 155
-1.855856 -1.801802 -5.005990 155 155 155
-1.917355 -1.889020 -5.248311 155 155 155
-1.891164 -1.872440 -5.202246 155 155 155
-1.881802 -1.872440 -5.202246 155 155 155
-1.864802 -1.864802 -5.181025 155 155 155
-1.903846 -1.923077 -5.342932 155 155 155
-1.894231 -1.923077 -5.342932 155 155 155
-1.814815 -1.851852 -5.145046 155 155 155
-1.805556 -1.851852 -5.145046 155 155 155
-1.813084 -1.869159 -5.193130 155 155 155
-1.803738 -1.869159 -5.193130 155 155 155
-1.794392 -1.869159 -5.193130 155 155 155
-1.753936 -1.865889 -5.184046 155 155 155
-1.715596 -1.834862 -5.097843 155 155 155
-1.690909 -1.818182 -5.051499 155 155 155
-1.666667 -1.801802 -5.005990 155 155 155
-1.657658 -1.801802 -5.005990 155 155 155
-1.879332 -2.053915 -5.706443 155 155 155
-1.869063 -2.053915 -5.706443 155 155 155
-1.838730 -2.031746 -5.644850 155 155 155
-1.806775 -2.007528 -5.577565 155 155 155
-1.786650 -1.996257 -5.546250 155 155 155
-1.760198 -1.977750 -5.494833 155 155 155
-1.623853 -1.834862 -5.097843 155 155 155
-1.610984 -1.830664 -5.086178 155 155 155
-1.590909 -1.818182 -5.051499 155 155 155
-1.581818 -1.818182 -5.051499 155 155 155
-1.801185 -2.106649 -5.852955 155 155 155
-1.571346 -1.848642 -5.136128 155 155 155
-1.780118 -2.106649 -5.852955 155 155 155
-1.684211 -2.005013 -5.570576 155 155 155
-1.674186 -2.005013 -5.570576 155 155 155
-1.664160 -2.005013 -5.570576 155 155 155
-1.664565 -2.017654 -5.605699 155 155 155
-1.654477 -2.017654 -5.605699 155 155 155
-1.583485 -1.942927 -5.398080 155 155 155
-1.557692 -1.923077 -5.342932 155 155 155
-1.548077 -1.923077 -5.342932 155 155 155
-1.567667 -1.959584 -5.444359 155 155 155
-1.557869 -1.959584 -5.444359 155 155 155
-1.548071 -1.959584 -5.444359 155 155 155
-1.553494 -1.978973 -5.498230 155 155 155
-1.549348 -1.986344 -5.518708 155 155 155
-1.445898 -1.902497 -5.285754 155 155 155
-1.427053 -1.890136 -5.251411 155 155 155
-1.417602 -1.890136 -5.251411 155 155 155
-1.404005 -1.884570 -5.235948 155 155 155
-1.357798 -1.834862 -5.097843 155 155 155
-1.348624 -1.834862 -5.097843 155 155 155
-1.653220 -2.264685 -6.292030 155 155 155
-1.641897 -2.264685 -6.292030 155 155 155
-1.569482 -2.179837 -6.056293 155 155 155
-1.553293 -2.172437 -6.035736 155 155 155
-1.542430 -2.172437 -6.035736 155 155 155
-1.531568 -2.172437 -6.035736 155 155 155
-1.503356 -2.147651 -5.966872 155 155 155
-1.490617 -2.144772 -5.958873 155 155 155
-1.437500 -2.083333 -5.788176 155 155 155
-1.396178 -2.038217 -5.662827 155 155 155
-1.307692 -1.923077 -5.342932 155 155 155
-1.298077 -1.923077 -5.342932 155 155 155
-7.052631 -10.526316 -29.245522 155 155 155
-7.000000 -10.526316 -29.245522 155 155 155
-6.017493 -9.329446 -25.920229 155 155 155
-5.595628 -8.743170 -24.291363 155 155 155
-5.924198 -9.329446 -25.920229 155 155 155
-7.687500 -12.500000 -34.729057 155 155 155
-4.234273 -6.941432 -19.285551 155 155 155
-4.199566 -6.941432 -19.285551 155 155 155
-5.217391 -8.695652 -24.159344 155 155 155
-6.125000 -12.500000 -34.729057 155 155 155
-5.705883 -11.764706 -32.686172 155 155 155
-5.333333 -11.111111 -30.870274 155 155 155
-5.016501 -10.561056 -29.342041 155 155 155
-4.963696 -10.561056 -29.342041 155 155 155
-5.125000 -12.500000 -34.729057 155 155 155
-4.747253 -11.721612 -32.566441 155 155 155
-4.688645 -11.721612 -32.566441 155 155 155
-4.058824 -11.764706 -32.686172 155 155 155
-4.000000 -11.764706 -32.686172 155 155 155
-4.187500 -12.500000 -34.729057 155 155 155
-2.224599 -8.556149 -23.771761 155 155 155
-2.130548 -8.355091 -23.213156 155 155 155
-2.139037 -8.556149 -23.771761 155 155 155
-2.722222 -11.111111 -30.870274 155 155 155
-0.661017 -3.389831 -9.418050 155 155 155
-0.644068 -3.389831 -9.418050 155 155 155
-0.275371 -1.899110 -5.276343 155 155 155
-0.264151 -1.886792 -5.242122 155 155 155
-0.252336 -1.869159 -5.193130 155 155 155
-0.238532 -1.834862 -5.097843 155 155 155
-0.229358 -1.834862 -5.097843 155 155 155
-0.224299 -1.869159 -5.193130 155 155 155
-0.214953 -1.869159 -5.193130 155 155 155
-0.205607 -1.869159 -5.193130 155 155 155
-0.196262 -1.869159 -5.193130 155 155 155
-0.186916 -1.869159 -5.193130 155 155 155
-0.173814 -1.829617 -5.083270 155 155 155
-0.163265 -1.814059 -5.040045 155 155 155
-0.153153 -1.801802 -5.005990 155 155 155
-0.145125 -1.814059 -5.040045 155 155 155
-0.137773 -1.836969 -5.103696 155 155 155
-0.129630 -1.851852 -5.145046 155 155 155
-0.119403 -1.836969 -5.103696 155 155 155
-0.111111 -1.851852 -5.145046 155 155 155
-0.101852 -1.851852 -5.145046 155 155 155
-0.092593 -1.851852 -5.145046 155 155 155
-0.081772 -1.817149 -5.048631 155 155 155
-0.072686 -1.817149 -5.048631 155 155 155
-0.037231 -1.861547 -5.171983 155 155 155
-0.027476 -1.831712 -5.089089 155 155 155
-0.018171 -1.817149 -5.048631 155 155 155
-0.009009 -1.801802 -5.005990 155 155 155
0.000000 -1.801802 -5.005990 155 155 155
0.009009 -1.801802 -5.005990 155 155 155
0.018018 -1.801802 -5.005990 155 155 155
0.027027 -1.801802 -5.005990 155 155 155
0.036036 -1.801802 -5.005990 155 155 155
0.045872 -1.834862 -5.097843 155 155 155
0.055046 -1.834862 -5.097843 155 155 155
0.063564 -1.816118 -5.045765 155 155 155
0.072072 -1.801802 -5.005990 155 155 155
0.081081 -1.801802 -5.005990 155 155 155
0.152941 -2.352941 -6.537234 155 155 155
0.140269 -1.870251 -5.196165 155 155 155
0.148664 -1.858304 -5.162972 155 155 155
0.154458 -1.817149 -5.048631 155 155 155
0.163451 -1.816118 -5.045765 155 155 155
0.172531 -1.816118 -5.045765 155 155 155
0.188235 -1.882353 -5.229787 155 155 155
0.205882 -1.960784 -5.447695 155 155 155
0.578947 -5.263158 -14.622761 155 155 155
0.605263 -5.263158 -14.622761 155 155 155
0.629508 -5.245902 -14.574818 155 155 155
0.641026 -5.128205 -14.247818 155 155 155
0.666667 -5.128205 -14.247818 155 155 155
0.687898 -5.095541 -14.157068 155 155 155
0.708861 -5.063291 -14.067466 155 155 155
0.725000 -5.000000 -13.891623 155 155 155
0.735069 -4.900459 -13.615067 155 155 155
0.753799 -4.863222 -13.511609 155 155 155
0.765321 -4.783258 -13.289445 155 155 155
0.785714 -4.761905 -13.230117 155 155 155
0.790698 -4.651163 -12.922440 155 155 155
0.794326 -4.539007 -12.610835 155 155 155
0.800000 -4.444445 -12.348109 155 155 155
0.822222 -4.444445 -12.348109 155 155 155
0.845619 -4.450626 -12.365283 155 155 155
0.867872 -4.450626 -12.365283 155 155 155
0.888889 -4.444445 -12.348109 155 155 155
0.891304 -4.347826 -12.079672 155 155 155
0.906883 -4.318489 -11.998163 155 155 155
0.922252 -4.289544 -11.917747 155 155 155
0.939920 -4.272363 -11.870011 155 155 155
0.957447 -4.255319 -11.822658 155 155 155
0.958333 -4.166667 -11.576352 155 155 155
0.956743 -4.071247 -11.311245 155 155 155
0.973384 -4.055767 -11.268236 155 155 155
0.982456 -4.010025 -11.141151 155 155 155
0.998752 -3.995006 -11.099424 155 155 155
1.011152 -3.965304 -11.016900 155 155 155
1.020859 -3.926380 -10.908759 155 155 155
1.039216 -3.921569 -10.895391 155 155 155
1.051095 -3.892944 -10.815862 155 155 155
1.057692 -3.846154 -10.685863 155 155 155
1.057851 -3.778040 -10.496622 155 155 155
1.075472 -3.773585 -10.484243 155 155 155
1.089202 -3.755868 -10.435022 155 155 155
1.091329 -3.699422 -10.278195 155 155 155
1.109827 -3.699422 -10.278195 155 155 155
1.110353 -3.640501 -10.114492 155 155 155
1.125993 -3.632236 -10.091531 155 155 155
1.125000 -3.571429 -9.922587 155 155 155
1.139043 -3.559510 -9.889476 155 155 155
1.154273 -3.551609 -9.867523 155 155 155
1.157895 -3.508772 -9.748507 155 155 155
1.152688 -3.440860 -9.559827 155 155 155
1.152542 -3.389831 -9.418050 155 155 155
1.168254 -3.386243 -9.408083 155 155 155
1.185185 -3.386243 -9.408083 155 155 155
1.188285 -3.347280 -9.299831 155 155 155
1.190083 -3.305785 -9.184544 155 155 155
1.195496 -3.275333 -9.099937 155 155 155
1.211873 -3.275333 -9.099937 155 155 155
1.228250 -3.275333 -9.099937 155 155 155
1.225806 -3.225806 -8.962337 155 155 155
1.235707 -3.209629 -8.917391 155 155 155
1.239325 -3.177756 -8.828836 155 155 155
1.253968 -3.174603 -8.820078 155 155 155
1.269841 -3.174603 -8.820078 155 155 155
1.284440 -3.171457 -8.811337 155 155 155
1.273786 -3.106796 -8.631688 155 155 155
1.279383 -3.082852 -8.565163 155 155 155
1.292308 -3.076923 -8.548691 155 155 155
1.287879 -3.030303 -8.419166 155 155 155
1.301798 -3.027436 -8.411201 155 155 155
1.298507 -2.985075 -8.293507 155 155 155
1.304912 -2.965709 -8.239702 155 155 155
1.306422 -2.935780 -8.156549 155 155 155
1.315068 -2.922374 -8.119305 155 155 155
1.322434 -2.906449 -8.075058 155 155 155
1.333333 -2.898551 -8.053115 155 155 155
1.345389 -2.893309 -8.038552 155 155 155
1.345259 -2.862254 -7.952271 155 155 155
1.357143 -2.857143 -7.938070 155 155 155
1.370205 -2.854594 -7.930989 155 155 155
1.378330 -2.841918 -7.895772 155 155 155
1.376646 -2.809482 -7.805653 155 155 155
1.375000 -2.777778 -7.717568 155 155 155
1.388889 -2.777778 -7.717568 155 155 155
1.396716 -2.765774 -7.684216 155 155 155
1.394872 -2.735043 -7.598836 155 155 155
1.401361 -2.721088 -7.560067 155 155 155
1.404219 -2.700422 -7.502649 155 155 155
1.417722 -2.700422 -7.502649 155 155 155
1.430017 -2.698145 -7.496323 155 155 155
1.425479 -2.664446 -7.402697 155 155 155
1.430464 -2.649007 -7.359800 155 155 155
1.434211 -2.631579 -7.311380 155 155 155
1.447368 -2.631579 -7.311380 155 155 155
1.459326 -2.629417 -7.305373 155 155 155
1.460473 -2.607987 -7.245834 155 155 155
1.462783 -2.588997 -7.193073 155 155 155
1.470968 -2.580645 -7.169870 155 155 155
1.474359 -2.564103 -7.123909 155 155 155
1.481245 -2.553871 -7.095482 155 155 155
1.481013 -2.531646 -7.033733 155 155 155
1.476153 -2.501955 -6.951242 155 155 155
1.487500 -2.500000 -6.945811 155 155 155
1.501173 -2.501955 -6.951242 155 155 155
1.528505 -2.465331 -6.849491 155 155 155
1.476015 -2.361624 -6.561357 155 155 155
1.485630 -2.358143 -6.551687 155 155 155
1.499631 -2.361624 -6.561357 155 155 155
1.506990 -2.354673 -6.542045 155 155 155
1.482759 -2.298851 -6.386953 155 155 155
1.494253 -2.298851 -6.386953 155 155 155
1.493942 -2.280827 -6.336877 155 155 155
1.522711 -2.307138 -6.409977 155 155 155
1.530935 -2.302158 -6.396143 155 155 155
1.550253 -2.313811 -6.428517 155 155 155
1.553957 -2.302158 -6.396143 155 155 155
1.557624 -2.290623 -6.364093 155 155 155
1.556818 -2.272727 -6.314374 155 155 155
1.564848 -2.267895 -6.300949 155 155 155
1.561798 -2.247191 -6.243426 155 155 155
1.571930 -2.245614 -6.239045 155 155 155
1.576520 -2.236198 -6.212885 155 155 155
1.587701 -2.236198 -6.212885 155 155 155
1.588889 -2.222222 -6.174055 155 155 155
1.587870 -2.205376 -6.127249 155 155 155
1.592313 -2.196294 -6.102017 155 155 155
1.600000 -2.191781 -6.089478 155 155 155
1.597826 -2.173913 -6.039836 155 155 155
1.605424 -2.169492 -6.027552 155 155 155
1.602151 -2.150538 -5.974892 155 155 155
1.612903 -2.150538 -5.974892 155 155 155
1.623656 -2.150538 -5.974892 155 155 155
1.634409 -2.150538 -5.974892 155 155 155
1.633089 -2.134757 -5.931046 155 155 155
1.623188 -2.108037 -5.856811 155 155 155
1.629435 -2.102497 -5.841418 155 155 155
1.629243 -2.088773 -5.803289 155 155 155
1.635417 -2.083333 -5.788176 155 155 155
1.645833 -2.083333 -5.788176 155 155 155
1.642350 -2.065849 -5.739599 155 155 155
1.646302 -2.057878 -5.717453 155 155 155
1.652341 -2.052598 -5.702783 155 155 155
1.653061 -2.040816 -5.670050 155 155 155
1.663265 -2.040816 -5.670050 155 155 155
1.672403 -2.039516 -5.666436 155 155 155
1.666667 -2.020202 -5.612777 155 155 155
1.675710 -2.018927 -5.609236 155 155 155
1.681561 -2.013845 -5.595116 155 155 155
1.680000 -2.000000 -5.556649 155 155 155
1.673267 -1.980198 -5.501633 155 155 155
1.668712 -1.963190 -5.454380 155 155 155
1.677498 -1.961987 -5.451035 155 155 155
1.685242 -1.959584 -5.444359 155 155 155
1.691931 -1.955990 -5.434376 155 155 155
1.689320 -1.941748 -5.394805 155 155 155
1.680672 -1.920768 -5.336518 155 155 155
1.689262 -1.919616 -5.333316 155 155 155
1.697842 -1.918465 -5.330119 155 155 155
1.695238 -1.904762 -5.292047 155 155 155
1.704762 -1.904762 -5.292047 155 155 155
1.711230 -1.901367 -5.282614 155 155 155
1.707547 -1.886792 -5.242122 155 155 155
1.715969 -1.885681 -5.239033 155 155 155
1.708285 -1.866978 -5.187070 155 155 155
1.701734 -1.849711 -5.139098 155 155 155
1.709994 -1.848642 -5.136128 155 155 155
1.708381 -1.836969 -5.103696 155 155 155
1.716581 -1.835915 -5.100768 155 155 155
1.723782 -1.833811 -5.094922 155 155 155
1.730967 -1.831712 -5.089089 155 155 155
1.727273 -1.818182 -5.051499 155 155 155
1.720721 -1.801802 -5.005990 155 155 155
1.729730 -1.801802 -5.005990 155 155 155
1.738739 -1.801802 -5.005990 155 155 155
1.747748 -1.801802 -5.005990 155 155 155
1.756757 -1.801802 -5.005990 155 155 155
1.765766 -1.801802 -5.005990 155 155 155
1.774775 -1.801802 -5.005990 155 155 155
1.783784 -1.801802 -5.005990 155 155 155
1.792793 -1.801802 -5.005990 155 155 155
1.801802 -1.801802 -5.005990 155 155 155
1.810811 -1.801802 -5.005990 155 155 155
1.819820 -1.801802 -5.005990 155 155 155
2.993733 -2.864816 -7.959390 155 155 155
2.973451 -2.831858 -7.867822 155 155 155
2.987611 -2.831858 -7.867822 155 155 155
2.457183 -2.264685 -6.292030 155 155 155
2.468507 -2.264685 -6.292030 155 155 155
3.329650 -2.946593 -8.186592 155 155 155
3.344383 -2.946593 -8.186592 155 155 155
3.304348 -2.898551 -8.053115 155 155 155
2.096110 -1.830664 -5.086178 155 155 155
2.100457 -1.826484 -5.074565 155 155 155
2.081081 -1.801802 -5.005990 155 155 155
2.090090 -1.801802 -5.005990 155 155 155
2.196818 -1.885681 -5.239033 155 155 155
2.312083 -1.942927 -5.398080 155 155 155
2.321797 -1.942927 -5.398080 155 155 155
2.321645 -1.934704 -5.375235 155 155 155
2.302089 -1.910448 -5.307844 155 155 155
2.287064 -1.890136 -5.251411 155 155 155
2.275015 -1.872440 -5.202246 155 155 155
2.284377 -1.872440 -5.202246 155 155 155
2.271147 -1.853998 -5.151007 155 155 155
2.242735 -1.823362 -5.065891 155 155 155
2.250570 -1.822323 -5.063006 155 155 155
2.259681 -1.822323 -5.063006 155 155 155
2.333333 -1.851852 -5.145046 155 155 155
2.334487 -1.845444 -5.127243 155 155 155
2.315670 -1.823362 -5.065891 155 155 155
2.297297 -1.801802 -5.005990 155 155 155
2.306306 -1.801802 -5.005990 155 155 155
2.315315 -1.801802 -5.005990 155 155 155
2.324324 -1.801802 -5.005990 155 155 155
2.333333 -1.801802 -5.005990 155 155 155
3.132530 -2.409639 -6.694758 155 155 155
3.144578 -2.409639 -6.694758 155 155 155
2.421721 -1.848642 -5.136128 155 155 155
2.407323 -1.830664 -5.086178 155 155 155
2.398637 -1.817149 -5.048631 155 155 155
2.407723 -1.817149 -5.048631 155 155 155
3.166667 -2.380952 -6.615058 155 155 155
3.178571 -2.380952 -6.615058 155 155 155
3.152941 -2.352941 -6.537234 155 155 155
3.160059 -2.349486 -6.527635 155 155 155
3.139535 -2.325581 -6.461220 155 155 155
3.128427 -2.308802 -6.414602 155 155 155
3.097509 -2.277580 -6.327857 155 155 155
3.071730 -2.250352 -6.252207 155 155 155
3.082982 -2.250352 -6.252207 155 155 155
3.085554 -2.244039 -6.234670 155 155 155
3.043418 -2.205376 -6.127249 155 155 155
3.019073 -2.179837 -6.056293 155 155 155
2.993271 -2.153432 -5.982933 155 155 155
2.968085 -2.127660 -5.911329 155 155 155
2.978723 -2.127660 -5.911329 155 155 155
2.981432 -2.122016 -5.895649 155 155 155
2.788461 -1.923077 -5.342932 155 155 155
2.776386 -1.908169 -5.301514 155 155 155
2.754717 -1.886792 -5.242122 155 155 155
2.764151 -1.886792 -5.242122 155 155 155
2.754098 -1.873536 -5.205292 155 155 155
2.725173 -1.847575 -5.133163 155 155 155
2.715596 -1.834862 -5.097843 155 155 155
2.703072 -1.820250 -5.057246 155 155 155
2.712173 -1.820250 -5.057246 155 155 155
2.725926 -1.823362 -5.065891 155 155 155
2.735043 -1.823362 -5.065891 155 155 155
2.736364 -1.818182 -5.051499 155 155 155
2.745455 -1.818182 -5.051499 155 155 155
2.845481 -1.865889 -5.184046 155 155 155
2.833333 -1.851852 -5.145046 155 155 155
2.806857 -1.828571 -5.080365 155 155 155
2.774775 -1.801802 -5.005990 155 155 155
2.783784 -1.801802 -5.005990 155 155 155
2.792793 -1.801802 -5.005990 155 155 155
2.801802 -1.801802 -5.005990 155 155 155
2.810811 -1.801802 -5.005990 155 155 155
2.868270 -1.832761 -5.092004 155 155 155
14.272727 -9.090909 -25.257496 155 155 155
14.867256 -9.439528 -26.226072 155 155 155
19.750000 -12.500000 -34.729057 155 155 155
19.812500 -12.500000 -34.729057 155 155 155
19.200001 -12.075472 -33.549580 155 155 155
17.722221 -11.111111 -30.870274 155 155 155
-1.873874 -1.810811 -5.005990 155 155 155
-1.864865 -1.810811 -5.005990 155 155 155
-1.855856 -1.810811 -5.005990 155 155 155
-1.917355 -1.898465 -5.248311 155 155 155
-1.891164 -1.881802 -5.202246 155 155 155
-1.881802 -1.881802 -5.202246 155 155 155
-1.864802 -1.874126 -5.181025 155 155 155
-1.903846 -1.932692 -5.342932 155 155 155
-1.894231 -1.932692 -5.342932 155 155 155
-1.814815 -1.861111 -5.145046 155 155 155
-1.805556 -1.861111 -5.145046 155 155 155
-1.813084 -1.878505 -5.193130 155 155 155
-1.803738 -1.878505 -5.193130 155 155 155
-1.794392 -1.878505 -5.193130 155 155 155
-1.753936 -1.875219 -5.184046 155 155 155
-1.715596 -1.844037 -5.097843 155 155 155
-1.690909 -1.827273 -5.051499 155 155 155
-1.666667 -1.810811 -5.005990 155 155 155
-1.657658 -1.810811 -5.005990 155 155 155
-1.879332 -2.064185 -5.706443 155 155 155
-1.869063 -2.064185 -5.706443 155 155 155
-1.838730 -2.041905 -5.644850 155 155 155
-1.806775 -2.017566 -5.577565 155 155 155
-1.786650 -2.006238 -5.546250 155 155 155
-1.760198 -1.987639 -5.494833 155 155 155
-1.623853 -1.844037 -5.097843 155 155 155
-1.610984 -1.839817 -5.086178 155 155 155
-1.590909 -1.827273 -5.051499 155 155 155
-1.581818 -1.827273 -5.051499 155 155 155
-1.801185 -2.117182 -5.852955 155 155 155
-1.571346 -1.857886 -5.136128 155 155 155
-1.780118 -2.117182 -5.852955 155 155 155
-1.684211 -2.015038 -5.570576 155 155 155
-1.674186 -2.015038 -5.570576 155 155 155
-1.664160 -2.015038 -5.570576 155 155 155
-1.664565 -2.027743 -5.605699 155 155 155
-1.654477 -2.027743 -5.605699 155 155 155
-1.583485 -1.952641 -5.398080 155 155 155
-1.557692 -1.932692 -5.342932 155 155 155
-1.548077 -1.932692 -5.342932 155 155 155
-1.567667 -1.969381 -5.444359 155 155 155
-1.557869 -1.969381 -5.444359 155 155 155
-1.548071 -1.969381 -5.444359 155 155 155
-1.553494 -1.988868 -5.498230 155 155 155
-1.549348 -1.996276 -5.518708 155 155 155
-1.445898 -1.912009 -5.285754 155 155 155
-1.427053 -1.899587 -5.251411 155 155 155
-1.417602 -1.899587 -5.251411 155 155 155
-1.404005 -1.893993 -5.235948 155 155 155
-1.357798 -1.844037 -5.097843 155 155 155
-1.348624 -1.844037 -5.097843 155 155 155
-1.653220 -2.276009 -6.292030 155 155 155
-1.641897 -2.276009 -6.292030 155 155 155
-1.569482 -2.190736 -6.056293 155 155 155
-1.553293 -2.183299 -6.035736 155 155 155
-1.542430 -2.183299 -6.035736 155 155 155
-1.531568 -2.183299 -6.035736 155 155 155
-1.503356 -2.158389 -5.966872 155 155 155
-1.490617 -2.155496 -5.958873 155 155 155
-1.437500 -2.093750 -5.788176 155 155 155
-1.396178 -2.048408 -5.662827 155 155 155
-1.307692 -1.932692 -5.342932 155 155 155
-1.298077 -1.932692 -5.342932 155 155 155
-7.052631 -10.578947 -29.245522 155 155 155
-7.000000 -10.578947 -29.245522 155 155 155
-6.017493 -9.376093 -25.920229 155 155 155
-5.595628 -8.786885 -24.291363 155 155 155
-5.924198 -9.376093 -25.920229 155 155 155
-7.687500 -12.562500 -34.729057 155 155 155
-4.234273 -6.976139 -19.285551 155 155 155
-4.199566 -6.976139 -19.285551 155 155 155
-5.217391 -8.739130 -24.159344 155 155 155
-6.125000 -12.562500 -34.729057 155 155 155
-5.705883 -11.823529 -32.686172 155 155 155
-5.333333 -11.166667 -30.870274 155 155 155
-5.016501 -10.613861 -29.342041 155 155 155
-4.963696 -10.613861 -29.342041 155 155 155
-5.125000 -12.562500 -34.729057 155 155 155
-4.747253 -11.780220 -32.566441 155 155 155
-4.688645 -11.780220 -32.566441 155 155 155
-4.058824 -11.823529 -32.686172 155 155 155
-4.000000 -11.823529 -32.686172 155 155 155
-4.187500 -12.562500 -34.729057 155 155 155
-2.224599 -8.598930 -23.771761 155 155 155
-2.130548 -8.396867 -23.213156 155 155 155
-2.139037 -8.598930 -23.771761 155 155 155
-2.722222 -11.166667 -30.870274 155 155 155
-0.661017 -3.406780 -9.418050 155 155 155
-0.644068 -3.406780 -9.418050 155 155 155
-0.275371 -1.908605 -5.276343 155 155 155
-0.264151 -1.896226 -5.242122 155 155 155
-0.252336 -1.878505 -5.193130 155 155 155
-0.238532 -1.844037 -5.097843 155 155 155
-0.229358 -1.844037 -5.097843 155 155 155
-0.224299 -1.878505 -5.193130 155 155 155
-0.214953 -1.878505 -5.193130 155 155 155
-0.205607 -1.878505 -5.193130 155 155 155
-0.196262 -1.878505 -5.193130 155 155 155
-0.186916 -1.878505 -5.193130 155 155 155
-0.173814 -1.838765 -5.083270 155 155 155
-0.163265 -1.823129 -5.040045 155 155 155
-0.153153 -1.810811 -5.005990 155 155 155
-0.145125 -1.823129 -5.040045 155 155 155
-0.137773 -1.846154 -5.103696 155 155 155
-0.129630 -1.861111 -5.145046 155 155 155
-0.119403 -1.846154 -5.103696 155 155 155
-0.111111 -1.861111 -5.145046 155 155 155
-0.101852 -1.861111 -5.145046 155 155 155
-0.092593 -1.861111 -5.145046 155 155 155
-0.081772 -1.826235 -5.048631 155 155 155
-0.072686 -1.826235 -5.048631 155 155 155
-0.037231 -1.870855 -5.171983 155 155 155
-0.027476 -1.840870 -5.089089 155 155 155
-0.018171 -1.826235 -5.048631 155 155 155
-0.009009 -1.810811 -5.005990 155 155 155
0.000000 -1.810811 -5.005990 155 155 155
0.009009 -1.810811 -5.005990 155 155 155
0.018018 -1.810811 -5.005990 155 155 155
0.027027 -1.810811 -5.005990 155 155 155
0.036036 -1.810811 -5.005990 155 155 155
0.045872 -1.844037 -5.097843 155 155 155
0.055046 -1.844037 -5.097843 155 155 155
0.063564 -1.825199 -5.045765 155 155 155
0.072072 -1.810811 -5.005990 155 155 155
0.081081 -1.810811 -5.005990 155 155 155
0.152941 -2.364706 -6.537234 155 155 155
0.140269 -1.879603 -5.196165 155 155 155
0.148664 -1.867596 -5.162972 155 155 155
0.154458 -1.826235 -5.048631 155 155 155
0.163451 -1.825199 -5.045765 155 155 155
0.172531 -1.825199 -5.045765 155 155 155
0.188235 -1.891765 -5.229787 155 155 155
0.205882 -1.970588 -5.447695 155 155 155
0.578947 -5.289474 -14.622761 155 155 155
0.605263 -5.289474 -14.622761 155 155 155
0.629508 -5.272131 -14.574818 155 155 155
0.641026 -5.153846 -14.247818 155 155 155
0.666667 -5.153846 -14.247818 155 155 155
0.687898 -5.121019 -14.157068 155 155 155
0.708861 -5.088608 -14.067466 155 155 155
0.725000 -5.025000 -13.891623 155 155 155
0.735069 -4.924962 -13.615067 155 155 155
0.753799 -4.887538 -13.511609 155 155 155
0.765321 -4.807175 -13.289445 155 155 155
0.785714 -4.785714 -13.230117 155 155 155
0.790698 -4.674418 -12.922440 155 155 155
0.794326 -4.561702 -12.610835 155 155 155
0.800000 -4.466667 -12.348109 155 155 155
0.822222 -4.466667 -12.348109 155 155 155
0.845619 -4.472879 -12.365283 155 155 155
0.867872 -4.472879 -12.365283 155 155 155
0.888889 -4.466667 -12.348109 155 155 155
0.891304 -4.369565 -12.079672 155 155 155
0.906883 -4.340081 -11.998163 155 155 155
0.922252 -4.310992 -11.917747 155 155 155
0.939920 -4.293725 -11.870011 155 155 155
0.957447 -4.276596 -11.822658 155 155 155
0.958333 -4.187500 -11.576352 155 155 155
0.956743 -4.091603 -11.311245 155 155 155
0.973384 -4.076046 -11.268236 155 155 155
0.982456 -4.030075 -11.141151 155 155 155
0.998752 -4.014981 -11.099424 155 155 155
1.011152 -3.985130 -11.016900 155 155 155
1.020859 -3.946012 -10.908759 155 155 155
1.039216 -3.941176 -10.895391 155 155 155
1.051095 -3.912409 -10.815862 155 155 155
1.057692 -3.865385 -10.685863 155 155 155
1.057851 -3.796930 -10.496622 155 155 155
1.075472 -3.792453 -10.484243 155 155 155
1.089202 -3.774648 -10.435022 155 155 155
1.091329 -3.717919 -10.278195 155 155 155
1.109827 -3.717919 -10.278195 155 155 155
1.110353 -3.658703 -10.114492 155 155 155
1.125993 -3.650397 -10.091531 155 155 155
1.125000 -3.589286 -9.922587 155 155 155
1.139043 -3.577308 -9.889476 155 155 155
1.154273 -3.569367 -9.867523 155 155 155
1.157895 -3.526316 -9.748507 155 155 155
1.152688 -3.458065 -9.559827 155 155 155
1.152542 -3.406780 -9.418050 155 155 155
1.168254 -3.403175 -9.408083 155 155 155
1.185185 -3.403175 -9.408083 155 155 155
1.188285 -3.364017 -9.299831 155 155 155
1.190083 -3.322314 -9.184544 155 155 155
1.195496 -3.291709 -9.099937 155 155 155
1.211873 -3.291709 -9.099937 155 155 155
1.228250 -3.291709 -9.099937 155 155 155
1.225806 -3.241935 -8.962337 155 155 155
1.235707 -3.225677 -8.917391 155 155 155
1.239325 -3.193645 -8.828836 155 155 155
1.253968 -3.190476 -8.820078 155 155 155
1.269841 -3.190476 -8.820078 155 155 155
1.284440 -3.187314 -8.811337 155 155 155
1.273786 -3.122330 -8.631688 155 155 155
1.279383 -3.098266 -8.565163 155 155 155
1.292308 -3.092308 -8.548691 155 155 155
1.287879 -3.045455 -8.419166 155 155 155
1.301798 -3.042573 -8.411201 155 155 155
1.298507 -3.000000 -8.293507 155 155 155
1.304912 -2.980538 -8.239702 155 155 155
1.306422 -2.950459 -8.156549 155 155 155
1.315068 -2.936986 -8.119305 155 155 155
1.322434 -2.920981 -8.075058 155 155 155
1.333333 -2.913043 -8.053115 155 155 155
1.345389 -2.907776 -8.038552 155 155 155
1.345259 -2.876565 -7.952271 155 155 155
1.357143 -2.871428 -7.938070 155 155 155
1.370205 -2.868867 -7.930989 155 155 155
1.378330 -2.856128 -7.895772 155 155 155
1.376646 -2.823529 -7.805653 155 155 155
1.375000 -2.791667 -7.717568 155 155 155
1.388889 -2.791667 -7.717568 155 155 155
1.396716 -2.779603 -7.684216 155 155 155
1.394872 -2.748718 -7.598836 155 155 155
1.401361 -2.734694 -7.560067 155 155 155
1.404219 -2.713924 -7.502649 155 155 155
1.417722 -2.713924 -7.502649 155 155 155
1.430017 -2.711636 -7.496323 155 155 155
1.425479 -2.677768 -7.402697 155 155 155
1.430464 -2.662252 -7.359800 155 155 155
1.434211 -2.644737 -7.311380 155 155 155
1.447368 -2.644737 -7.311380 155 155 155
1.459326 -2.642564 -7.305373 155 155 155
1.460473 -2.621027 -7.245834 155 155 155
1.462783 -2.601942 -7.193073 155 155 155
1.470968 -2.593548 -7.169870 155 155 155
1.474359 -2.576923 -7.123909 155 155 155
1.481245 -2.566640 -7.095482 155 155 155
1.481013 -2.544304 -7.033733 155 155 155
1.476153 -2.514464 -6.951242 155 155 155
1.487500 -2.512500 -6.945811 155 155 155
1.501173 -2.514464 -6.951242 155 155 155
1.528505 -2.477658 -6.849491 155 155 155
1.476015 -2.373432 -6.561357 155 155 155
1.485630 -2.369934 -6.551687 155 155 155
1.499631 -2.373432 -6.561357 155 155 155
1.506990 -2.366446 -6.542045 155 155 155
1.482759 -2.310345 -6.386953 155 155 155
1.494253 -2.310345 -6.386953 155 155 155
1.493942 -2.292231 -6.336877 155 155 155
1.522711 -2.318673 -6.409977 155 155 155
1.530935 -2.313669 -6.396143 155 155 155
1.550253 -2.325380 -6.428517 155 155 155
1.553957 -2.313669 -6.396143 155 155 155
1.557624 -2.302076 -6.364093 155 155 155
1.556818 -2.284091 -6.314374 155 155 155
1.564848 -2.279235 -6.300949 155 155 155
1.561798 -2.258427 -6.243426 155 155 155
1.571930 -2.256842 -6.239045 155 155 155
1.576520 -2.247380 -6.212885 155 155 155
1.587701 -2.247380 -6.212885 155 155 155
1.588889 -2.233333 -6.174055 155 155 155
1.587870 -2.216403 -6.127249 155 155 155
1.592313 -2.207275 -6.102017 155 155 155
1.600000 -2.202740 -6.089478 155 155 155
1.597826 -2.184783 -6.039836 155 155 155
1.605424 -2.180339 -6.027552 155 155 155
1.602151 -2.161290 -5.974892 155 155 155
1.612903 -2.161290 -5.974892 155 155 155
1.623656 -2.161290 -5.974892 155 155 155
1.634409 -2.161290 -5.974892 155 155 155
1.633089 -2.145430 -5.931046 155 155 155
1.623188 -2.118577 -5.856811 155 155 155
1.629435 -2.113009 -5.841418 155 155 155
1.629243 -2.099217 -5.803289 155 155 155
1.635417 -2.093750 -5.788176 155 155 155
1.645833 -2.093750 -5.788176 155 155 155
1.642350 -2.076178 -5.739599 155 155 155
1.646302 -2.068167 -5.717453 155 155 155
1.652341 -2.062861 -5.702783 155 155 155
1.653061 -2.051020 -5.670050 155 155 155
1.663265 -2.051020 -5.670050 155 155 155
1.672403 -2.049713 -5.666436 155 155 155
1.666667 -2.030303 -5.612777 155 155 155
1.675710 -2.029022 -5.609236 155 155 155
1.681561 -2.023914 -5.595116 155 155 155
1.680000 -2.010000 -5.556649 155 155 155
1.673267 -1.990099 -5.501633 155 155 155
1.668712 -1.973006 -5.454380 155 155 155
1.677498 -1.971796 -5.451035 155 155 155
1.685242 -1.969381 -5.444359 155 155 155
1.691931 -1.965770 -5.434376 155 155 155
1.689320 -1.951456 -5.394805 155 155 155
1.680672 -1.930372 -5.336518 155 155 155
1.689262 -1.929214 -5.333316 155 155 155
1.697842 -1.928058 -5.330119 155 155 155
1.695238 -1.914286 -5.292047 155 155 155
1.704762 -1.914286 -5.292047 155 155 155
1.711230 -1.910873 -5.282614 155 155 155
1.707547 -1.896226 -5.242122 155 155 155
1.715969 -1.895109 -5.239033 155 155 155
1.708285 -1.876313 -5.187070 155 155 155
1.701734 -1.858960 -5.139098 155 155 155
1.709994 -1.857886 -5.136128 155 155 155
1.708381 -1.846154 -5.103696 155 155 155
1.716581 -1.845095 -5.100768 155 155 155
1.723782 -1.842980 -5.094922 155 155 155
1.730967 -1.840870 -5.089089 155 155 155
1.727273 -1.827273 -5.051499 155 155 155
1.720721 -1.810811 -5.005990 155 155 155
1.729730 -1.810811 -5.005990 155 155 155
1.738739 -1.810811 -5.005990 155 155 155
1.747748 -1.810811 -5.005990 155 155 155
1.756757 -1.810811 -5.005990 155 155 155
1.765766 -1.810811 -5.005990 155 155 155
1.774775 -1.810811 -5.005990 155 155 155
1.783784 -1.810811 -5.005990 155 155 155
1.792793 -1.810811 -5.005990 155 155 155
1.801802 -1.810811 -5.005990 155 155 155
1.810811 -1.810811 -5.005990 155 155 155
1.819820 -1.810811 -5.005990 155 155 155
2.993733 -2.879141 -7.959390 155 155 155
2.973451 -2.846018 -7.867822 155 155 155
2.987611 -2.846018 -7.867822 155 155 155
2.457183 -2.276009 -6.292030 155 155 155
2.468507 -2.276009 -6.292030 155 155 155
3.329650 -2.961326 -8.186592 155 155 155
3.344383 -2.961326 -8.186592 155 155 155
3.304348 -2.913043 -8.053115 155 155 155
2.096110 -1.839817 -5.086178 155 155 155
2.100457 -1.835616 -5.074565 155 155 155
2.081081 -1.810811 -5.005990 155 155 155
2.090090 -1.810811 -5.005990 155 155 155
2.196818 -1.895109 -5.239033 155 155 155
2.312083 -1.952641 -5.398080 155 155 155
2.321797 -1.952641 -5.398080 155 155 155
2.321645 -1.944377 -5.375235 155 155 155
2.302089 -1.920000 -5.307844 155 155 155
2.287064 -1.899587 -5.251411 155 155 155
2.275015 -1.881802 -5.202246 155 155 155
2.284377 -1.881802 -5.202246 155 155 155
2.271147 -1.863268 -5.151007 155 155 155
2.242735 -1.832479 -5.065891 155 155 155
2.250570 -1.831435 -5.063006 155 155 155
2.259681 -1.831435 -5.063006 155 155 155
2.333333 -1.861111 -5.145046 155 155 155
2.334487 -1.854671 -5.127243 155 155 155
2.315670 -1.832479 -5.065891 155 155 155
2.297297 -1.810811 -5.005990 155 155 155
2.306306 -1.810811 -5.005990 155 155 155
2.315315 -1.810811 -5.005990 155 155 155
2.324324 -1.810811 -5.005990 155 155 155
2.333333 -1.810811 -5.005990 155 155 155
3.132530 -2.421687 -6.694758 155 155 155
3.144578 -2.421687 -6.694758 155 155 155
2.421721 -1.857886 -5.136128 155 155 155
2.407323 -1.839817 -5.086178 155 155 155
2.398637 -1.826235 -5.048631 155 155 155
2.407723 -1.826235 -5.048631 155 155 155
3.166667 -2.392857 -6.615058 155 155 155
3.178571 -2.392857 -6.615058 155 155 155
3.152941 -2.364706 -6.537234 155 155 155
3.160059 -2.361233 -6.527635 155 155 155
3.139535 -2.337209 -6.461220 155 155 155
3.128427 -2.320346 -6.414602 155 155 155
3.097509 -2.288968 -6.327857 155 155 155
3.071730 -2.261603 -6.252207 155 155 155
3.082982 -2.261603 -6.252207 155 155 155
3.085554 -2.255260 -6.234670 155 155 155
3.043418 -2.216403 -6.127249 155 155 155
3.019073 -2.190736 -6.056293 155 155 155
2.993271 -2.164199 -5.982933 155 155 155
2.968085 -2.138298 -5.911329 155 155 155
2.978723 -2.138298 -5.911329 155 155 155
2.981432 -2.132626 -5.895649 155 155 155
2.788461 -1.932692 -5.342932 155 155 155
2.776386 -1.917710 -5.301514 155 155 155
2.754717 -1.896226 -5.242122 155 155 155
2.764151 -1.896226 -5.242122 155 155 155
2.754098 -1.882904 -5.205292 155 155 155
2.725173 -1.856813 -5.133163 155 155 155
2.715596 -1.844037 -5.097843 155 155 155
2.703072 -1.829352 -5.057246 155 155 155
2.712173 -1.829352 -5.057246 155 155 155
2.725926 -1.832479 -5.065891 155 155 155
2.735043 -1.832479 -5.065891 155 155 155
2.736364 -1.827273 -5.051499 155 155 155
2.745455 -1.827273 -5.051499 155 155 155
2.845481 -1.875219 -5.184046 155 155 155
2.833333 -1.861111 -5.145046 155 155 155
2.806857 -1.837714 -5.080365 155 155 155
2.774775 -1.810811 -5.005990 155 155 155
2.783784 -1.810811 -5.005990 155 155 155
2.792793 -1.810811 -5.005990 155 155 155
2.801802 -1.810811 -5.005990 155 155 155
2.810811 -1.810811 -5.005990 155 155 155
2.868270 -1.841924 -5.092004 155 155 155
14.272727 -9.136364 -25.257496 155 155 155
14.867256 -9.486726 -26.226072 155 155 155
19.750000 -12.562500 -34.729057 155 155 155
19.812500 -12.562500 -34.729057 155 155 155
19.200001 -12.135849 -33.549580 155 155 155
17.722221 -11.166667 -30.870274 155 155 155
-1.873874 -1.819820 -5.005990 155 155 155
-1.864865 -1.819820 -5.005990 155 155 155
-1.855856 -1.819820 -5.005990 155 155 155
-1.917355 -1.907910 -5.248311 155 155 155
-1.891164 -1.891164 -5.202246 155 155 155
-1.881802 -1.891164 -5.202246 155 155 155
-1.864802 -1.883450 -5.181025 155 155 155
-1.903846 -1.942308 -5.342932 155 155 155
-1.894231 -1.942308 -5.342932 155 155 155
-1.814815 -1.870370 -5.145046 155 155 155
-1.805556 -1.870370 -5.145046 155 155 155
-1.813084 -1.887851 -5.193130 155 155 155
-1.803738 -1.887851 -5.193130 155 155 155
-1.794392 -1.887851 -5.193130 155 155 155
-1.753936 -1.884548 -5.184046 155 155 155
-1.715596 -1.853211 -5.097843 155 155 155
-1.690909 -1.836364 -5.051499 155 155 155
-1.666667 -1.819820 -5.005990 155 155 155
-1.657658 -1.819820 -5.005990 155 155 155
-1.879332 -2.074455 -5.706443 155 155 155
-1.869063 -2.074455 -5.706443 155 155 155
-1.838730 -2.052063 -5.644850 155 155 155
-1.806775 -2.027604 -5.577565 155 155 155
-1.786650 -2.016220 -5.546250 155 155 155
-1.760198 -1.997528 -5.494833 155 155 155
-1.623853 -1.853211 -5.097843 155 155 155
-1.610984 -1.848970 -5.086178 155 155 155
-1.590909 -1.836364 -5.051499 155 155 155
-1.581818 -1.836364 -5.051499 155 155 155
-1.801185 -2.127716 -5.852955 155 155 155
-1.571346 -1.867129 -5.136128 155 155 155
-1.780118 -2.127716 -5.852955 155 155 155
-1.684211 -2.025063 -5.570576 155 155 155
-1.674186 -2.025063 -5.570576 155 155 155
-1.664160 -2.025063 -5.570576 155 155 155
-1.664565 -2.037831 -5.605699 155 155 155
-1.654477 -2.037831 -5.605699 155 155 155
-1.583485 -1.962356 -5.398080 155 155 155
-1.557692 -1.942308 -5.342932 155 155 155
-1.548077 -1.942308 -5.342932 155 155 155
-1.567667 -1.979179 -5.444359 155 155 155
-1.557869 -1.979179 -5.444359 155 155 155
-1.548071 -1.979179 -5.444359 155 155 155
-1.553494 -1.998763 -5.498230 155 155 155
-1.549348 -2.006207 -5.518708 155 155 155
-1.445898 -1.921522 -5.285754 155 155 155
-1.427053 -1.909037 -5.251411 155 155 155
-1.417602 -1.909037 -5.251411 155 155 155
-1.404005 -1.903416 -5.235948 155 155 155
-1.357798 -1.853211 -5.097843 155 155 155
-1.348624 -1.853211 -5.097843 155 155 155
-1.653220 -2.287332 -6.292030 155 155 155
-1.641897 -2.287332 -6.292030 155 155 155
-1.569482 -2.201635 -6.056293 155 155 155
-1.553293 -2.194162 -6.035736 155 155 155
-1.542430 -2.194162 -6.035736 155 155 155
-1.531568 -2.194162 -6.035736 155 155 155
-1.503356 -2.169127 -5.966872 155 155 155
-1.490617 -2.166220 -5.958873 155 155 155
-1.437500 -2.104167 -5.788176 155 155 155
-1.396178 -2.058599 -5.662827 155 155 155
-1.307692 -1.942308 -5.342932 155 155 155
-1.298077 -1.942308 -5.342932 155 155 155
-7.052631 -10.631579 -29.245522 155 155 155
-7.000000 -10.631579 -29.245522 155 155 155
-6.017493 -9.422741 -25.920229 155 155 155
-5.595628 -8.830601 -24.291363 155 155 155
-5.924198 -9.422741 -25.920229 155 155 155
-7.687500 -12.625000 -34.729057 155 155 155
-4.234273 -7.010846 -19.285551 155 155 155
-4.199566 -7.010846 -19.285551 155 155 155
-5.217391 -8.782609 -24.159344 155 155 155
-6.125000 -12.625000 -34.729057 155 155 155
-5.705883 -11.882353 -32.686172 155 155 155
-5.333333 -11.222222 -30.870274 155 155 155
-5.016501 -10.666667 -29.342041 155 155 155
-4.963696 -10.666667 -29.342041 155 155 155
-5.125000 -12.625000 -34.729057 155 155 155
-4.747253 -11.838828 -32.566441 155 155 155
-4.688645 -11.838828 -32.566441 155 155 155
-4.058824 -11.882353 -32.686172 155 155 155
-4.000000 -11.882353 -32.686172 155 155 155
-4.187500 -12.625000 -34.729057 155 155 155
-2.224599 -8.641711 -23.771761 155 155 155
-2.130548 -8.438643 -23.213156 155 155 155
-2.139037 -8.641711 -23.771761 155 155 155
-2.722222 -11.222222 -30.870274 155 155 155
-0.661017 -3.423729 -9.418050 155 155 155
-0.644068 -3.423729 -9.418050 155 155 155
-0.275371 -1.918101 -5.276343 155 155 155
-0.264151 -1.905660 -5.242122 155 155 155
-0.252336 -1.887851 -5.193130 155 155 155
-0.238532 -1.853211 -5.097843 155 155 155
-0.229358 -1.853211 -5.097843 155 155 155
-0.224299 -1.887851 -5.193130 155 155 155
-0.214953 -1.887851 -5.193130 155 155 155
-0.205607 -1.887851 -5.193130 155 155 155
-0.196262 -1.887851 -5.193130 155 155 155
-0.186916 -1.887851 -5.193130 155 155 155
-0.173814 -1.847913 -5.083270 155 155 155
-0.163265 -1.832200 -5.040045 155 155 155
-0.153153 -1.819820 -5.005990 155 155 155
-0.145125 -1.832200 -5.040045 155 155 155
-0.137773 -1.855339 -5.103696 155 155 155
-0.129630 -1.870370 -5.145046 155 155 155
-0.119403 -1.855339 -5.103696 155 155 155
-0.111111 -1.870370 -5.145046 155 155 155
-0.101852 -1.870370 -5.145046 155 155 155
-0.092593 -1.870370 -5.145046 155 155 155
-0.081772 -1.835321 -5.048631 155 155 155
-0.072686 -1.835321 -5.048631 155 155 155
-0.037231 -1.880163 -5.171983 155 155 155
-0.027476 -1.850029 -5.089089 155 155 155
-0.018171 -1.835321 -5.048631 155 155 155
-0.009009 -1.819820 -5.005990 155 155 155
0.000000 -1.819820 -5.005990 155 155 155
0.009009 -1.819820 -5.005990 155 155 155
0.018018 -1.819820 -5.005990 155 155 155
0.027027 -1.819820 -5.005990 155 155 155
0.036036 -1.819820 -5.005990 155 155 155
0.045872 -1.853211 -5.097843 155 155 155
0.055046 -1.853211 -5.097843 155 155 155
0.063564 -1.834279 -5.045765 155 155 155
0.072072 -1.819820 -5.005990 155 155 155
0.081081 -1.819820 -5.005990 155 155 155
0.152941 -2.376471 -6.537234 155 155 155
0.140269 -1.888954 -5.196165 155 155 155
0.148664 -1.876887 -5.162972 155 155 155
0.154458 -1.835321 -5.048631 155 155 155
0.163451 -1.834279 -5.045765 155 155 155
0.172531 -1.834279 -5.045765 155 155 155
0.188235 -1.901176 -5.229787 155 155 155
0.205882 -1.980392 -5.447695 155 155 155
0.578947 -5.315790 -14.622761 155 155 155
0.605263 -5.315790 -14.622761 155 155 155
0.629508 -5.298361 -14.574818 155 155 155
0.641026 -5.179487 -14.247818 155 155 155
0.666667 -5.179487 -14.247818 155 155 155
0.687898 -5.146497 -14.157068 155 155 155
0.708861 -5.113924 -14.067466 155 155 155
0.725000 -5.050000 -13.891623 155 155 155
0.735069 -4.949464 -13.615067 155 155 155
0.753799 -4.911854 -13.511609 155 155 155
0.765321 -4.831091 -13.289445 155 155 155
0.785714 -4.809524 -13.230117 155 155 155
0.790698 -4.697674 -12.922440 155 155 155
0.794326 -4.584397 -12.610835 155 155 155
0.800000 -4.488889 -12.348109 155 155 155
0.822222 -4.488889 -12.348109 155 155 155
0.845619 -4.495132 -12.365283 155 155 155
0.867872 -4.495132 -12.365283 155 155 155
0.888889 -4.488889 -12.348109 155 155 155
0.891304 -4.391304 -12.079672 155 155 155
0.906883 -4.361673 -11.998163 155 155 155
0.922252 -4.332440 -11.917747 155 155 155
0.939920 -4.315087 -11.870011 155 155 155
0.957447 -4.297873 -11.822658 155 155 155
0.958333 -4.208333 -11.576352 155 155 155
0.956743 -4.111959 -11.311245 155 155 155
0.973384 -4.096324 -11.268236 155 155 155
0.982456 -4.050125 -11.141151 155 155 155
0.998752 -4.034956 -11.099424 155 155 155
1.011152 -4.004957 -11.016900 155 155 155
