ply
        format ascii 1.0
        element vertex 73871
        property float x
        property float y
        property float z
        property uchar red
        property uchar green
        property uchar blue
        end_header
2.734859 -2.207268 -5.982933 87 71 56
2.712766 -2.180851 -5.911329 88 72 57
2.698287 -2.160738 -5.856811 89 73 58
2.708827 -2.160738 -5.856811 90 74 59
2.721160 -2.162162 -5.860672 92 76 61
2.735313 -2.165016 -5.868408 93 77 62
2.745875 -2.165016 -5.868408 93 77 62
2.720521 -2.136808 -5.791947 94 78 63
2.711514 -2.121604 -5.750737 95 79 64
2.709594 -2.112041 -5.724816 94 78 63
2.838710 -2.204301 -5.974892 93 77 61
2.853297 -2.207268 -5.982933 93 77 61
2.864065 -2.207268 -5.982933 95 78 62
2.872898 -2.205783 -5.978909 94 77 61
2.851064 -2.180851 -5.911329 94 77 61
2.798440 -2.132640 -5.780649 94 77 61
2.785300 -2.114765 -5.732198 95 78 62
2.792016 -2.112041 -5.724816 96 79 63
2.786172 -2.099872 -5.691830 96 79 63
2.769816 -2.079899 -5.637691 97 80 64
2.554779 -1.911422 -5.181025 98 81 65
2.915838 -2.173625 -5.891742 98 81 65
2.926441 -2.173625 -5.891742 99 82 64
2.931217 -2.169312 -5.880052 99 82 64
2.910995 -2.146597 -5.818481 100 83 65
2.910039 -2.138201 -5.795723 100 83 65
2.916667 -2.135417 -5.788176 99 82 64
2.917586 -2.128488 -5.769396 98 81 63
3.002625 -2.152231 -5.833753 93 76 58
2.993481 -2.138201 -5.795723 92 75 57
2.998048 -2.134027 -5.784410 91 74 56
3.022222 -2.143791 -5.810875 91 74 56
3.048620 -2.155059 -5.841418 90 73 55
3.071240 -2.163588 -5.864537 90 73 55
2.901205 -1.975904 -5.355806 97 80 62
2.879619 -1.954708 -5.298355 98 81 63
2.870337 -1.941978 -5.263848 99 82 64
2.862860 -1.930547 -5.232866 99 82 64
2.850467 -1.915888 -5.193130 100 83 65
-2.662162 -2.783784 -7.508986 86 69 53
-2.644182 -2.779089 -7.496323 85 68 52
-4.376266 -4.769899 -12.866337 74 57 41
-4.353111 -4.769899 -12.866337 76 59 43
-4.329957 -4.769899 -12.866337 79 62 46
-4.313044 -4.776812 -12.884984 82 65 49
-4.296081 -4.783744 -12.903685 84 67 51
-4.309524 -4.904762 -13.230117 87 70 54
-4.266667 -4.882963 -13.171316 87 70 54
-4.242963 -4.882963 -13.171316 87 70 54
-7.875000 -12.875000 -34.729057 125 106 91
-7.812500 -12.875000 -34.729057 125 106 91
-6.794520 -11.287671 -30.447393 125 106 91
-6.857143 -11.484321 -30.977835 124 105 90
-7.625000 -12.875000 -34.729057 122 103 88
-7.137547 -12.252789 -33.050701 116 97 82
-6.948905 -12.029197 -32.447586 113 94 79
-6.791367 -11.856115 -31.980715 110 91 76
-6.882353 -12.117647 -32.686172 108 89 74
-6.848709 -12.162362 -32.806786 107 88 73
-6.865672 -12.298508 -33.174026 105 86 71
-6.805970 -12.298508 -33.174026 104 85 70
-6.622711 -12.073260 -32.566441 103 84 69
-6.564103 -12.073260 -32.566441 101 84 68
-2.681239 -6.003643 -16.194242 93 74 59
-2.590747 -5.864769 -15.819642 92 73 58
-2.553191 -5.843972 -15.763544 91 72 57
-2.511464 -5.813051 -15.680139 91 72 57
-4.047619 -9.809524 -26.460234 93 74 59
-3.964602 -9.722713 -26.226072 94 75 60
-3.894428 -9.665689 -26.072254 95 76 61
-3.847507 -9.665689 -26.072254 96 77 62
-3.800586 -9.665689 -26.072254 96 77 62
-3.753666 -9.665689 -26.072254 96 77 62
-3.706745 -9.665689 -26.072254 96 77 62
-3.670588 -9.694118 -26.148937 96 77 62
-3.677612 -9.838806 -26.539221 96 77 62
-3.629851 -9.838806 -26.539221 94 75 60
-3.582090 -9.838806 -26.539221 93 74 59
-3.523809 -9.809524 -26.460234 91 72 57
-3.638629 -10.267913 -27.696693 90 71 56
-3.588785 -10.267913 -27.696693 88 69 55
-3.538941 -10.267913 -27.696693 88 69 55
-3.446154 -10.141539 -27.355812 87 68 54
-3.335347 -9.957704 -26.859936 87 68 54
-3.277108 -9.927711 -26.779032 87 68 54
-3.190476 -9.809524 -26.460234 87 68 54
-3.115044 -9.722713 -26.226072 86 67 53
-3.023256 -9.581395 -25.844879 86 67 53
-2.951009 -9.498559 -25.621437 83 64 50
-2.913295 -9.526011 -25.695488 83 64 50
-0.894118 -9.694118 -26.148937 59 43 28
0.697131 -3.502657 -9.448075 73 60 44
0.698545 -3.426195 -9.241828 68 55 39
0.743083 -3.256917 -8.785216 46 33 17
1.181818 -3.745455 -10.102999 71 57 44
1.200000 -3.745455 -10.102999 76 63 47
1.222349 -3.758267 -10.137558 80 67 51
1.242009 -3.762557 -10.149131 86 70 55
1.271889 -3.797235 -10.242671 89 73 58
1.290323 -3.797235 -10.242671 93 77 62
1.319396 -3.828107 -10.325945 94 78 63
1.699907 -3.071761 -8.285777 81 64 48
1.705283 -3.054680 -8.239702 80 63 47
1.720111 -3.054680 -8.239702 80 63 47
1.725346 -3.037788 -8.194137 80 63 47
1.733701 -3.026630 -8.164040 80 63 47
1.748393 -3.026630 -8.164040 80 63 47
1.785978 -3.040591 -8.201696 83 65 51
1.792470 -3.026630 -8.164040 85 67 53
1.807163 -3.026630 -8.164040 87 69 55
1.398851 -2.103382 -5.673668 94 76 62
1.393939 -2.080808 -5.612777 94 76 62
1.387399 -2.056145 -5.546250 95 77 63
1.386997 -2.040867 -5.505039 95 77 63
1.393453 -2.035825 -5.491438 95 77 63
1.401604 -2.033313 -5.484663 94 76 62
1.402820 -2.020846 -5.451035 93 75 61
1.404878 -2.009756 -5.421121 91 73 59
1.411192 -2.004866 -5.407931 89 71 57
1.418336 -2.001214 -5.398080 87 69 55
1.428919 -2.002430 -5.401360 85 67 53
1.445665 -2.012210 -5.427741 82 66 51
1.451888 -2.007308 -5.414518 80 64 49
1.451906 -1.993950 -5.378487 78 62 47
1.457177 -1.987937 -5.362267 76 60 45
1.461538 -1.980769 -5.342932 75 59 46
1.468506 -1.977205 -5.333316 75 59 46
1.471045 -1.967761 -5.307844 76 60 47
1.470937 -1.954923 -5.273214 76 60 47
1.465649 -1.935408 -5.220575 76 60 47
2.570940 -2.817094 -7.598836 59 47 35
2.573617 -2.805106 -7.566501 58 46 34
2.580645 -2.797963 -7.547232 58 46 34
2.605286 -2.809889 -7.579402 57 45 33
2.618926 -2.809889 -7.579402 57 45 33
2.621392 -2.797963 -7.547232 57 45 33
2.623838 -2.786137 -7.515333 57 45 33
2.635135 -2.783784 -7.508986 58 46 34
2.626466 -2.760469 -7.446096 60 48 36
2.191083 -2.099363 -5.662827 36 24 12
2.204082 -2.102041 -5.670050 33 21 9
2.257477 -2.143043 -5.780649 32 20 8
2.267880 -2.143043 -5.780649 32 20 8
2.237548 -2.104725 -5.677291 36 24 12
2.244898 -2.102041 -5.670050 40 28 16
2.255102 -2.102041 -5.670050 46 34 22
2.259542 -2.096692 -5.655622 56 44 32
2.266836 -2.094028 -5.648436 64 52 40
2.275556 -2.092698 -5.644850 67 55 43
2.275600 -2.083439 -5.619873 75 63 51
2.285714 -2.083439 -5.619873 84 72 60
2.746021 -2.280969 -6.152691 81 67 54
2.753283 -2.277816 -6.144187 80 66 53
2.743484 -2.260631 -6.097832 81 65 52
2.731973 -2.242177 -6.048054 81 65 52
2.735414 -2.236092 -6.031641 81 65 52
2.729602 -2.222522 -5.995036 82 66 53
2.731183 -2.215054 -5.974892 83 67 54
2.709163 -2.188579 -5.903479 84 68 55
2.696511 -2.169849 -5.852955 85 69 54
2.707044 -2.169849 -5.852955 87 71 56
2.721160 -2.172709 -5.860672 88 72 57
2.737120 -2.177015 -5.872284 89 73 58
2.747688 -2.177015 -5.872284 89 73 58
2.862585 -2.242177 -6.048054 92 76 61
2.865672 -2.236092 -6.031641 93 77 62
2.860999 -2.224022 -5.999082 94 78 63
2.862139 -2.216543 -5.978909 96 80 64
2.867114 -2.212080 -5.966872 97 81 65
2.851064 -2.191489 -5.911329 97 81 65
2.835310 -2.171278 -5.856811 98 82 66
2.808843 -2.143043 -5.780649 99 83 67
2.817414 -2.141650 -5.776893 100 84 68
2.918846 -2.210597 -5.962870 101 84 68
2.929577 -2.210597 -5.962870 101 84 68
2.940309 -2.210597 -5.962870 101 84 68
2.945114 -2.206158 -5.950896 101 84 68
2.967742 -2.215054 -5.974892 101 84 68
2.964549 -2.204682 -5.946916 101 84 68
2.941799 -2.179894 -5.880052 100 83 65
2.936842 -2.168421 -5.849104 100 83 65
2.947368 -2.168421 -5.849104 99 82 64
3.013123 -2.162730 -5.833753 89 72 54
3.023622 -2.162730 -5.833753 89 72 54
3.050132 -2.174143 -5.864537 88 71 53
3.060686 -2.174143 -5.864537 87 70 52
3.073267 -2.175578 -5.868408 87 70 52
6.641910 -4.371353 -11.791298 101 84 68
-7.423077 -7.961538 -21.371727 82 65 49
-7.384615 -7.961538 -21.371727 81 64 48
-4.409812 -4.779221 -12.829205 79 62 46
-4.386724 -4.779221 -12.829205 77 60 44
-4.369942 -4.786127 -12.847744 77 60 44
-4.353111 -4.793054 -12.866337 79 62 46
-4.329957 -4.793054 -12.866337 81 64 48
-4.319304 -4.806967 -12.903685 83 66 50
-4.302326 -4.813953 -12.922440 85 68 52
-4.297810 -4.835036 -12.979034 84 67 51
-4.328849 -4.950673 -13.289445 83 66 50
-4.266667 -4.906667 -13.171316 82 65 49
-4.242963 -4.906667 -13.171316 82 65 49
-1.610000 -2.070000 -5.556649 100 83 67
-1.600000 -2.070000 -5.556649 103 86 70
-1.590000 -2.070000 -5.556649 104 87 71
-1.483510 -2.060983 -5.532445 107 88 73
-1.480926 -2.071295 -5.560124 107 88 73
-1.470919 -2.071295 -5.560124 106 87 72
-7.937500 -12.937500 -34.729057 121 102 87
-7.875000 -12.937500 -34.729057 120 101 86
-7.812500 -12.937500 -34.729057 119 100 85
-6.794520 -11.342465 -30.447393 118 99 84
-6.739726 -11.342465 -30.447393 117 98 83
-7.124088 -12.087591 -32.447586 116 97 82
-7.562500 -12.937500 -34.729057 115 96 81
-7.218045 -12.451128 -33.423454 112 93 78
-7.078067 -12.312267 -33.050701 110 91 76
-7.018588 -12.312267 -33.050701 108 89 74
-6.959108 -12.312267 -33.050701 107 88 73
-7.250000 -12.937500 -34.729057 107 88 73
-7.187500 -12.937500 -34.729057 106 87 72
-7.125000 -12.937500 -34.729057 106 87 72
-6.746269 -12.358209 -33.174026 105 86 71
-6.588235 -12.176471 -32.686172 103 86 70
-1.410909 -3.010909 -8.082398 94 77 59
-4.043956 -9.098901 -24.424831 88 69 54
-2.604651 -5.924866 -15.904541 88 69 54
-2.576029 -5.924866 -15.904541 89 70 55
-4.144578 -9.975904 -26.779032 90 71 56
-3.919308 -9.544668 -25.621437 91 72 57
-3.818182 -9.409091 -25.257496 92 73 58
-3.772727 -9.409091 -25.257496 93 74 59
-3.727273 -9.409091 -25.257496 93 74 59
-3.681818 -9.409091 -25.257496 93 74 59
-3.636364 -9.409091 -25.257496 93 74 59
-3.590909 -9.409091 -25.257496 93 74 59
-3.545455 -9.409091 -25.257496 92 73 58
-3.530086 -9.489971 -25.474609 91 72 57
-3.504323 -9.544668 -25.621437 89 70 55
-3.458213 -9.544668 -25.621437 88 69 54
-3.382857 -9.462857 -25.401825 86 67 52
-3.445428 -9.769912 -26.226072 86 67 52
-3.555556 -10.222222 -27.440243 85 66 52
-3.506173 -10.222222 -27.440243 85 66 52
-3.404255 -10.066870 -27.023218 84 65 51
-3.335347 -10.006042 -26.859936 83 64 50
-3.267267 -9.945946 -26.698614 82 63 49
-3.190476 -9.857142 -26.460234 81 62 48
-3.115044 -9.769912 -26.226072 79 60 46
-3.032070 -9.655976 -25.920229 78 59 45
-2.976744 -9.627907 -25.844879 76 57 43
-0.902077 -9.827893 -26.381718 55 39 24
-0.844575 -9.712610 -26.072254 54 38 23
-0.795322 -9.684211 -25.996019 55 39 24
-0.759644 -9.827893 -26.381718 59 43 27
-0.714286 -9.857142 -26.460234 64 48 32
-0.704403 -10.415094 -27.957983 68 52 36
-0.654088 -10.415094 -27.957983 72 56 40
-0.603774 -10.415094 -27.957983 78 62 46
-0.188791 -9.769912 -26.226072 110 94 78
0.685959 -3.549839 -9.529087 83 70 54
0.691254 -3.489990 -9.368428 79 66 50
0.698545 -3.442827 -9.241828 74 61 45
0.703476 -3.386503 -9.090632 70 57 41
0.712551 -3.352227 -8.998622 66 53 37
0.714286 -3.285714 -8.820078 62 49 33
0.727273 -3.272727 -8.785216 58 45 29
0.743083 -3.272727 -8.785216 55 42 26
0.751468 -3.240705 -8.699255 52 39 23
1.253456 -3.815668 -10.242671 83 67 52
1.271889 -3.815668 -10.242671 86 70 55
1.290323 -3.815668 -10.242671 89 73 58
1.319396 -3.846690 -10.325945 91 75 60
1.719626 -3.095327 -8.309008 81 64 48
1.729730 -3.086673 -8.285777 80 63 47
1.734940 -3.069509 -8.239702 78 61 45
1.740092 -3.052535 -8.194137 76 59 43
1.748393 -3.041322 -8.164040 75 58 42
1.771218 -3.055351 -8.201696 76 58 44
1.787627 -3.058172 -8.209270 77 59 45
1.802401 -3.058172 -8.209270 79 61 47
1.403329 -2.120358 -5.691830 96 78 64
1.395702 -2.093552 -5.619873 96 78 64
1.391740 -2.072591 -5.563604 97 79 65
1.393035 -2.059701 -5.529004 98 80 66
1.396904 -2.050774 -5.505039 98 80 66
1.403335 -2.045707 -5.491438 97 79 65
1.404543 -2.033149 -5.457728 96 78 64
1.411765 -2.029412 -5.447695 95 77 63
1.414634 -2.019512 -5.421121 93 75 61
1.424390 -2.019512 -5.421121 91 73 59
1.461632 -2.017052 -5.414518 80 64 49
1.458937 -2.000000 -5.368743 79 63 48
1.468599 -2.000000 -5.368743 77 61 48
2.564365 -2.823529 -7.579402 59 47 35
2.567063 -2.811545 -7.547232 58 46 34
2.576271 -2.806780 -7.534440 58 46 34
2.605286 -2.823529 -7.579402 58 46 34
2.618926 -2.823529 -7.579402 58 46 34
2.632566 -2.823529 -7.579402 58 46 34
2.632740 -2.809160 -7.540830 59 47 35
2.632911 -2.794937 -7.502649 60 48 36
2.624268 -2.771548 -7.439865 62 50 38
2.173089 -2.092230 -5.616323 39 27 15
2.180442 -2.089590 -5.609236 39 27 15
2.187776 -2.086957 -5.602167 36 24 12
2.203411 -2.092230 -5.616323 35 23 11
2.213519 -2.092230 -5.616323 37 25 13
2.223626 -2.092230 -5.616323 37 25 13
2.226700 -2.085642 -5.598639 37 25 13
2.236776 -2.085642 -5.598639 41 29 17
2.242615 -2.081710 -5.588082 48 36 24
2.248432 -2.077792 -5.577565 58 46 34
2.251407 -2.071295 -5.560124 64 52 40
2.257179 -2.067416 -5.549712 70 58 46
2.267166 -2.067416 -5.549712 76 64 52
2.280000 -2.070000 -5.556649 82 70 58
2.290000 -2.070000 -5.556649 90 78 66
2.300000 -2.070000 -5.556649 95 83 71
2.719890 -2.279422 -6.118815 81 67 54
2.699320 -2.253061 -6.048054 80 66 53
2.706522 -2.250000 -6.039836 79 65 52
2.704530 -2.239351 -6.011250 79 63 50
2.706199 -2.231806 -5.990996 78 62 49
2.715152 -2.230303 -5.986962 77 61 48
2.722260 -2.227303 -5.978909 78 62 49
2.729349 -2.224312 -5.970879 79 63 50
2.703777 -2.194831 -5.891742 80 64 51
2.696511 -2.180382 -5.852955 80 64 49
2.707044 -2.180382 -5.852955 82 66 51
2.726552 -2.187582 -5.872284 84 68 53
2.742555 -2.191926 -5.883944 84 68 53
2.873469 -2.253061 -6.048054 93 77 62
2.866802 -2.239351 -6.011250 95 79 64
2.864065 -2.228802 -5.982933 98 82 66
2.869040 -2.224312 -5.970879 100 84 68
2.852961 -2.203593 -5.915262 101 85 69
2.842801 -2.187582 -5.872284 102 86 70
2.851485 -2.186139 -5.868408 102 86 70
2.980498 -2.227303 -5.978909 103 86 70
2.989247 -2.225806 -5.974892 101 84 66
2.985953 -2.215385 -5.946916 100 83 65
6.718708 -4.457604 -11.965866 101 84 68
6.529335 -4.318122 -11.591446 102 85 69
6.550196 -4.318122 -11.591446 102 83 68
-4.619549 -5.004511 -13.369382 87 70 54
-4.428986 -4.823188 -12.884984 86 69 53
-4.386724 -4.802309 -12.829205 86 69 53
-4.369942 -4.809248 -12.847744 85 68 52
-4.353111 -4.816208 -12.866337 84 67 51
-4.342525 -4.830189 -12.903685 84 67 51
-4.331878 -4.844250 -12.941250 85 68 52
-4.314869 -4.851312 -12.960114 85 68 52
-4.310395 -4.872621 -13.017040 85 68 52
-4.389805 -4.989505 -13.329293 85 68 52
-4.352765 -4.974589 -13.289445 85 68 52
-4.309524 -4.952381 -13.230117 84 67 51
-4.285714 -4.952381 -13.230117 83 66 50
-1.648969 -2.078701 -5.553178 88 71 55
-1.629814 -2.067081 -5.522136 89 72 56
-1.625935 -2.074813 -5.542792 92 75 59
-1.615960 -2.074813 -5.542792 93 76 60
-1.607990 -2.077403 -5.549712 94 77 61
-1.598003 -2.077403 -5.549712 98 79 64
-1.589007 -2.078701 -5.553178 99 80 65
-1.577043 -2.076107 -5.546250 102 83 68
-1.566085 -2.074813 -5.542792 104 85 70
-1.556110 -2.074813 -5.542792 106 87 72
-1.548065 -2.077403 -5.549712 108 89 74
-1.538077 -2.077403 -5.549712 109 90 75
-1.525234 -2.073520 -5.539339 108 89 74
-1.509621 -2.065798 -5.518708 107 88 73
-1.495049 -2.059406 -5.501633 105 86 71
-1.485149 -2.059406 -5.501633 103 84 69
-1.477076 -2.061958 -5.508450 102 83 68
-1.468072 -2.063236 -5.511865 102 83 68
-1.459963 -2.065798 -5.518708 101 82 67
-1.452736 -2.069652 -5.529004 101 82 67
-1.442786 -2.069652 -5.529004 100 81 66
-8.000000 -13.000000 -34.729057 117 100 84
-7.937500 -13.000000 -34.729057 116 99 83
-7.875000 -13.000000 -34.729057 115 98 82
-7.812500 -13.000000 -34.729057 113 96 80
-6.888889 -11.555555 -30.870274 112 95 79
-6.538206 -11.056479 -29.537006 112 95 79
-6.801394 -11.595819 -30.977835 111 94 78
-7.312500 -13.000000 -34.729057 108 91 75
-7.250000 -13.000000 -34.729057 107 90 74
-7.187500 -13.000000 -34.729057 106 89 73
-7.125000 -13.000000 -34.729057 106 89 73
-7.062500 -13.000000 -34.729057 105 88 72
-6.711610 -12.464419 -33.298271 104 87 71
-1.568918 -3.078631 -8.224458 103 86 70
-1.454545 -3.087198 -8.247346 87 70 52
-1.419945 -3.044831 -8.134162 84 67 49
-3.965418 -9.590778 -25.621437 91 72 55
-3.863636 -9.454545 -25.257496 93 74 57
-3.785915 -9.374648 -25.044052 93 74 57
-3.740845 -9.374648 -25.044052 93 74 57
-3.695775 -9.374648 -25.044052 93 74 57
-3.630252 -9.322129 -24.903749 92 73 56
-3.575419 -9.296089 -24.834187 91 74 58
-3.520891 -9.270195 -24.765011 90 73 57
-3.476323 -9.270195 -24.765011 88 71 55
-3.520000 -9.508572 -25.401825 87 70 54
-3.504323 -9.590778 -25.621437 85 68 52
-3.458213 -9.590778 -25.621437 83 66 50
-3.382857 -9.508572 -25.401825 81 64 48
-3.731629 -10.632587 -28.404596 80 63 47
-3.634069 -10.498423 -28.046179 80 63 47
-3.550000 -10.400000 -27.783245 79 62 46
-3.456790 -10.271605 -27.440243 79 60 45
-3.355623 -10.115501 -27.023218 78 59 44
-3.296970 -10.084848 -26.941330 77 58 43
-3.200000 -9.934328 -26.539221 75 56 41
-3.142857 -9.904762 -26.460234 73 54 39
-3.049853 -9.759531 -26.072254 71 52 37
-3.002933 -9.759531 -26.072254 67 49 35
-0.949555 -9.875371 -26.381718 65 49 34
-0.902077 -9.875371 -26.381718 59 43 28
-0.844575 -9.759531 -26.072254 52 36 21
-0.797654 -9.759531 -26.072254 46 30 15
-0.761905 -9.904762 -26.460234 46 33 17
-0.729483 -10.115501 -27.023218 49 36 20
-0.704403 -10.465409 -27.957983 55 42 26
-0.654088 -10.465409 -27.957983 62 49 33
-0.603774 -10.465409 -27.957983 68 55 39
-0.550000 -10.400000 -27.783245 74 61 45
-0.500000 -10.400000 -27.783245 80 67 51
-0.450000 -10.400000 -27.783245 85 72 56
-0.400000 -10.400000 -27.783245 91 78 62
-0.345679 -10.271605 -27.440243 94 81 65
-0.289157 -10.024096 -26.779032 99 86 70
-0.238806 -9.934328 -26.539221 102 89 73
-0.188791 -9.817109 -26.226072 103 90 74
-0.141593 -9.817109 -26.226072 103 90 74
0.221782 -6.590099 -17.605225 115 102 85
0.253465 -6.590099 -17.605225 114 101 84
0.304762 -6.339047 -16.934549 112 99 82
0.328358 -6.208955 -16.587013 112 99 82
0.345946 -5.996397 -16.019169 113 100 83
0.677249 -3.521693 -9.408083 88 75 58
0.685475 -3.477534 -9.290113 85 72 55
0.692070 -3.427394 -9.156168 81 68 51
0.703476 -3.402863 -9.090632 77 64 47
0.712551 -3.368421 -8.998622 73 60 43
0.723618 -3.344724 -8.935315 69 56 39
0.730884 -3.304866 -8.828836 65 52 35
0.746032 -3.301587 -8.820078 62 49 32
0.762661 -3.304866 -8.828836 60 47 31
1.253456 -3.834101 -10.242671 79 63 48
1.271889 -3.834101 -10.242671 81 65 50
1.299304 -3.860789 -10.313966 82 66 51
1.721235 -3.113190 -8.316781 84 65 50
1.729730 -3.101584 -8.285777 83 64 49
1.734940 -3.084337 -8.239702 81 62 47
1.741697 -3.070111 -8.201696 78 59 44
1.758079 -3.072946 -8.209270 74 55 40
1.779425 -3.084337 -8.239702 71 52 38
1.794254 -3.084337 -8.239702 69 50 36
1.809083 -3.084337 -8.239702 70 51 37
1.403329 -2.130602 -5.691830 95 77 63
1.395702 -2.103666 -5.619873 96 78 64
1.391740 -2.082603 -5.563604 96 78 64
1.393035 -2.069652 -5.529004 97 79 65
1.398636 -2.063236 -5.511865 98 80 66
1.403335 -2.055590 -5.491438 100 81 67
1.411474 -2.053054 -5.484663 101 82 68
1.414365 -2.042971 -5.457728 100 82 68
1.423313 -2.041718 -5.454380 99 81 67
1.457177 -2.007238 -5.362267 87 69 55
1.459784 -1.997599 -5.336518 86 68 54
1.423423 -1.873874 -5.005990 83 67 54
1.432432 -1.873874 -5.005990 82 66 53
2.557265 -2.844445 -7.598836 62 48 37
2.564365 -2.837170 -7.579402 60 46 35
2.567063 -2.825127 -7.547232 59 45 34
2.571912 -2.815567 -7.521691 58 44 33
2.171717 -2.101010 -5.612777 43 30 21
2.173585 -2.093082 -5.591597 41 28 19
2.176802 -2.086520 -5.574068 41 28 19
2.185464 -2.085213 -5.570576 40 27 18
2.195489 -2.085213 -5.570576 40 27 18
2.205514 -2.085213 -5.570576 40 28 16
2.215539 -2.085213 -5.570576 40 28 16
2.225564 -2.085213 -5.570576 40 28 16
2.235589 -2.085213 -5.570576 40 28 16
2.241401 -2.081301 -5.560124 43 31 19
2.245789 -2.076107 -5.546250 49 37 25
2.245963 -2.067081 -5.522136 57 45 33
2.255901 -2.067081 -5.522136 65 53 41
2.268657 -2.069652 -5.529004 71 59 47
2.280025 -2.070940 -5.532445 76 64 52
2.291407 -2.072229 -5.535890 80 68 56
2.302804 -2.073520 -5.539339 82 70 58
2.699454 -2.273224 -6.072841 75 61 48
2.699320 -2.263946 -6.048054 74 58 45
2.701017 -2.256271 -6.027552 74 58 45
2.704530 -2.250169 -6.011250 74 58 45
2.706199 -2.242588 -5.990996 74 58 45
2.715152 -2.241077 -5.986962 73 57 44
2.724092 -2.239569 -5.982933 73 57 44
2.731183 -2.236559 -5.974892 73 57 44
2.703777 -2.205434 -5.891742 73 57 44
2.696511 -2.190915 -5.852955 76 60 45
2.707044 -2.190915 -5.852955 77 61 46
2.731966 -2.202515 -5.883944 78 62 47
2.873469 -2.263946 -6.048054 84 68 53
2.884354 -2.263946 -6.048054 88 72 57
2.877620 -2.250169 -6.011250 92 76 61
2.869040 -2.235057 -5.970879 95 79 64
2.852961 -2.214238 -5.915262 99 83 68
2.842801 -2.198151 -5.872284 104 88 73
2.851485 -2.196700 -5.868408 108 92 76
9.424242 -6.303030 -16.838331 97 80 62
6.718708 -4.479139 -11.965866 97 80 64
6.633112 -4.407947 -11.775681 99 82 66
9.587787 -6.351145 -16.966867 100 83 67
16.205788 -10.700965 -28.587263 102 85 69
16.415585 -10.805195 -28.865709 103 86 70
-7.461538 -8.038462 -21.371727 94 77 61
-4.772798 -5.168470 -13.741327 92 75 59
-4.591928 -4.998505 -13.289445 91 74 58
-4.454811 -4.874636 -12.960114 90 73 57
-4.412191 -4.853411 -12.903685 90 73 57
-4.388969 -4.853411 -12.903685 89 72 56
-4.372093 -4.860465 -12.922440 89 72 56
-4.355167 -4.867540 -12.941250 89 72 56
-4.338192 -4.874636 -12.960114 89 72 56
-4.321168 -4.881752 -12.979034 89 72 56
-4.310395 -4.896047 -13.017040 88 71 55
-4.286969 -4.896047 -13.017040 88 71 55
-4.294985 -4.932153 -13.113036 88 71 55
-4.290370 -4.954074 -13.171316 87 70 54
-1.638734 -2.075729 -5.518708 79 62 46
-1.624768 -2.070588 -5.505039 80 63 47
-1.613861 -2.069307 -5.501633 84 67 51
-1.603960 -2.069307 -5.501633 87 70 54
-1.592089 -2.066749 -5.494833 89 72 56
-1.584158 -2.069307 -5.501633 93 74 59
-1.574257 -2.069307 -5.501633 95 76 61
-1.562423 -2.066749 -5.494833 97 78 63
-1.552534 -2.066749 -5.494833 99 80 65
-1.542645 -2.066749 -5.494833 101 82 67
-1.534653 -2.069307 -5.501633 101 82 67
-1.525697 -2.070588 -5.505039 101 82 67
-1.515790 -2.070588 -5.505039 99 80 65
-1.504951 -2.069307 -5.501633 98 79 64
-1.493201 -2.066749 -5.494833 97 78 63
-1.484230 -2.068027 -5.498230 96 77 62
-1.475248 -2.069307 -5.501633 95 76 61
-1.468072 -2.073156 -5.511865 95 76 61
-1.459057 -2.074442 -5.515285 96 77 62
-1.449131 -2.074442 -5.515285 97 78 63
-1.437423 -2.071871 -5.508450 97 78 63
-1.432836 -2.079602 -5.529004 98 79 64
-8.000000 -13.062500 -34.729057 114 97 81
-7.937500 -13.062500 -34.729057 114 97 81
-7.875000 -13.062500 -34.729057 114 97 81
-7.490637 -12.524344 -33.298271 113 96 80
-6.794520 -11.452055 -30.447393 112 95 79
-6.495049 -11.036304 -29.342041 112 95 79
-6.485050 -11.109634 -29.537006 112 95 79
-7.312500 -13.062500 -34.729057 109 92 76
-7.250000 -13.062500 -34.729057 108 91 75
-7.187500 -13.062500 -34.729057 107 90 74
-7.125000 -13.062500 -34.729057 107 90 74
-6.696296 -12.385185 -32.928291 106 89 73
-6.588235 -12.294118 -32.686172 106 89 73
-6.481752 -12.204380 -32.447586 106 89 73
-1.618147 -3.160681 -8.403250 104 87 71
-1.589503 -3.134021 -8.332370 103 86 70
-1.573034 -3.131086 -8.324568 102 85 69
-1.558052 -3.131086 -8.324568 101 84 68
-1.543071 -3.131086 -8.324568 99 82 66
-1.535277 -3.145814 -8.363724 96 79 61
-1.524528 -3.154717 -8.387395 94 77 59
-1.509434 -3.154717 -8.387395 91 74 56
-1.483146 -3.131086 -8.324568 87 70 52
-1.449168 -3.090573 -8.216856 83 66 48
-1.426471 -3.073529 -8.171543 80 63 45
-1.411765 -3.073529 -8.171543 75 58 40
-3.785915 -9.419719 -25.044052 94 75 58
-3.740845 -9.419719 -25.044052 95 76 59
-3.695775 -9.419719 -25.044052 94 75 58
-3.630252 -9.366947 -24.903749 93 74 57
-3.575419 -9.340782 -24.834187 91 74 58
-3.520891 -9.314763 -24.765011 90 73 57
-3.476323 -9.314763 -24.765011 88 71 55
-4.512821 -12.249084 -32.566441 86 69 53
-4.750000 -13.062500 -34.729057 84 67 51
-4.687500 -13.062500 -34.729057 82 65 49
-4.274368 -12.072202 -32.096169 80 63 47
-3.972789 -11.374149 -30.240267 79 62 46
-3.752443 -10.892509 -28.959736 77 60 44
-3.629393 -10.683706 -28.404596 76 59 43
-3.500000 -10.450000 -27.783245 76 57 42
-3.417957 -10.352942 -27.525198 74 55 40
-3.368421 -10.352942 -27.525198 72 53 38
-3.318886 -10.352942 -27.525198 70 51 36
-3.171171 -10.042042 -26.698614 68 49 34
-3.104478 -9.982090 -26.539221 67 48 33
-0.949555 -9.922849 -26.381718 66 50 35
-0.902077 -9.922849 -26.381718 61 45 30
-0.842105 -9.777778 -25.996019 54 38 23
-0.795322 -9.777778 -25.996019 50 34 19
-0.752941 -9.835294 -26.148937 44 31 15
-0.718563 -10.011976 -26.618679 46 33 17
-0.680851 -10.164134 -27.023218 50 37 21
-0.640000 -10.289230 -27.355812 55 42 26
-0.594427 -10.352942 -27.525198 61 48 32
-0.546584 -10.385093 -27.610680 68 55 39
-0.500000 -10.450000 -27.783245 74 61 45
-0.455696 -10.582278 -28.134932 79 66 50
-0.401254 -10.482759 -27.870340 84 71 55
-0.350000 -10.450000 -27.783245 87 74 58
-0.296296 -10.320988 -27.440243 92 79 63
-0.239521 -10.011976 -26.618679 95 82 66
-0.187135 -9.777778 -25.996019 97 84 68
-0.136752 -9.527065 -25.329454 98 85 69
-0.089636 -9.366947 -24.903749 100 87 71
0.226263 -6.755556 -17.960886 114 101 84
0.253465 -6.621782 -17.605225 117 104 87
0.279612 -6.493204 -17.263376 117 104 87
0.301318 -6.297552 -16.743198 116 103 86
0.328358 -6.238806 -16.587013 116 103 86
0.352294 -6.135780 -16.313099 117 104 87
0.638619 -3.607336 -9.590764 90 77 60
0.655879 -3.607336 -9.590764 89 76 59
0.672414 -3.603448 -9.580430 89 76 59
0.677966 -3.542373 -9.418050 88 75 58
0.685475 -3.494253 -9.290113 87 74 57
0.700730 -3.486966 -9.270739 84 71 54
0.706366 -3.433265 -9.127966 81 68 51
0.719836 -3.419223 -9.090632 77 64 47
0.728745 -3.384615 -8.998622 73 60 43
0.739698 -3.360804 -8.935315 70 57 40
0.752753 -3.347347 -8.899538 68 55 38
0.782875 -3.408767 -9.062833 64 51 35
1.318996 -3.995221 -10.622029 78 62 47
1.338112 -3.995221 -10.622029 78 62 47
1.729730 -3.116496 -8.285777 87 68 53
1.730129 -3.090573 -8.216856 85 66 51
1.741697 -3.084871 -8.201696 81 62 47
1.756458 -3.084871 -8.201696 78 59 44
1.779425 -3.099166 -8.239702 76 57 43
1.797586 -3.104921 -8.255003 70 51 37
1.407836 -2.147720 -5.710108 93 75 61
1.389553 -2.104468 -5.595116 94 76 62
1.390869 -2.091307 -5.560124 95 77 63
1.396509 -2.084788 -5.542792 96 78 64
1.402985 -2.079602 -5.529004 97 79 65
1.408556 -2.073156 -5.511865 98 79 65
1.418475 -2.073156 -5.511865 99 80 66
1.443609 -2.095238 -5.570576 99 81 67
1.429072 -1.952131 -5.190098 91 73 59
1.414466 -1.919633 -5.103696 91 75 60
1.412301 -1.904328 -5.063006 92 76 61
1.412564 -1.892473 -5.031487 93 77 64
1.414414 -1.882883 -5.005990 93 77 64
1.423423 -1.882883 -5.005990 92 76 63
1.432432 -1.882883 -5.005990 91 75 62
2.550725 -2.850810 -7.579402 65 51 40
2.564365 -2.850810 -7.579402 63 49 38
2.578005 -2.850810 -7.579402 61 47 36
2.571912 -2.829103 -7.521691 60 46 35
2.162982 -2.112445 -5.616323 43 30 21
2.170347 -2.109779 -5.609236 43 30 21
2.166771 -2.096552 -5.574068 43 30 21
2.174076 -2.093926 -5.567088 43 30 21
2.167806 -2.078310 -5.525568 42 29 20
2.173697 -2.074442 -5.515285 42 29 20
2.183623 -2.074442 -5.515285 42 30 18
2.196273 -2.077019 -5.522136 43 31 19
2.220000 -2.090000 -5.556649 44 32 20
2.230000 -2.090000 -5.556649 45 33 21
2.237204 -2.087391 -5.549712 48 36 24
2.236025 -2.077019 -5.522136 51 39 27
2.240396 -2.071871 -5.508450 56 44 32
2.244747 -2.066749 -5.494833 61 49 37
2.254635 -2.066749 -5.494833 65 53 41
2.264524 -2.066749 -5.494833 70 58 46
2.281463 -2.073156 -5.511865 74 62 50
2.295652 -2.077019 -5.522136 77 65 53
2.312773 -2.083489 -5.539339 79 67 55
2.699320 -2.274830 -6.048054 68 52 39
2.710204 -2.274830 -6.048054 66 50 37
2.726409 -2.270197 -6.035736 61 45 32
2.729858 -2.264049 -6.019390 61 45 32
2.731444 -2.256410 -5.999082 63 47 34
2.740391 -2.254889 -5.995036 67 51 38
2.720000 -2.229333 -5.927093 69 53 40
2.714381 -2.216037 -5.891742 68 52 37
2.708827 -2.202899 -5.856811 69 53 38
2.612042 -2.075729 -5.518708 70 54 39
2.855984 -2.260987 -6.011250 76 60 45
2.873995 -2.241287 -5.958873 88 72 57
2.840924 -2.207261 -5.868408 95 79 64
2.838371 -2.197109 -5.841418 101 85 69
2.888889 -2.111111 -5.612777 92 75 59
3.071429 -2.132653 -5.670050 94 77 61
3.048580 -2.109779 -5.609236 93 76 60
9.975709 -6.769231 -17.997244 91 74 56
9.809524 -6.634921 -17.640156 92 75 57
9.668616 -6.518518 -17.330679 92 75 57
9.424242 -6.333333 -16.838331 92 75 57
9.401130 -6.297552 -16.743198 94 77 61
9.378277 -6.262172 -16.649136 95 78 62
9.587787 -6.381680 -16.966867 97 80 64
16.205788 -10.752412 -28.587263 98 81 65
16.415585 -10.857142 -28.865709 99 82 66
16.308681 -10.752412 -28.587263 99 82 66
-4.827372 -5.225505 -13.826810 95 78 62
-4.772798 -5.193199 -13.741327 94 77 61
-4.619549 -5.052631 -13.369382 93 76 60
-4.507375 -4.955752 -13.113036 93 76 60
-4.425036 -4.890830 -12.941250 92 75 59
-4.395349 -4.883721 -12.922440 93 76 60
-4.372093 -4.883721 -12.922440 93 76 60
-4.355167 -4.890830 -12.941250 94 77 61
-4.338192 -4.897959 -12.960114 94 77 61
-4.333821 -4.919473 -13.017040 93 76 60
-4.310395 -4.919473 -13.017040 91 74 58
-4.280702 -4.912281 -12.998010 91 74 58
-4.257310 -4.912281 -12.998010 90 73 57
-4.246334 -4.926686 -13.036127 89 72 56
-1.669390 -2.111879 -5.588082 77 60 44
-1.633663 -2.079208 -5.501633 76 59 43
-1.623762 -2.079208 -5.501633 78 61 45
-1.608883 -2.072795 -5.484663 82 65 49
-1.589209 -2.060086 -5.451035 87 70 54
-1.579399 -2.060086 -5.451035 89 72 56
-1.577326 -2.070240 -5.477904 93 74 59
-1.567468 -2.070240 -5.477904 94 75 60
-1.554736 -2.066421 -5.467797 95 76 61
-1.544895 -2.066421 -5.467797 96 77 62
-1.536946 -2.068965 -5.474531 96 77 62
-1.528977 -2.071517 -5.481282 95 76 61
-1.520049 -2.072795 -5.484663 92 73 58
-1.509248 -2.071517 -5.481282 90 71 56
-1.499383 -2.071517 -5.481282 89 70 55
-1.490438 -2.072795 -5.484663 89 70 55
-1.483313 -2.076638 -5.494833 89 70 55
-1.475248 -2.079208 -5.501633 90 71 56
-1.468072 -2.083075 -5.511865 91 72 57
-1.458153 -2.083075 -5.511865 93 74 59
-1.447336 -2.081784 -5.508450 96 77 62
-1.437423 -2.081784 -5.508450 97 78 63
-1.427509 -2.081784 -5.508450 100 81 66
-8.000000 -13.125000 -34.729057 114 97 81
-7.937500 -13.125000 -34.729057 114 97 81
-7.875000 -13.125000 -34.729057 114 97 81
-7.812500 -13.125000 -34.729057 114 97 81
-6.888889 -11.666667 -30.870274 114 97 81
-6.716723 -11.467577 -30.343477 114 97 81
-6.662116 -11.467577 -30.343477 113 96 80
-6.865455 -12.218182 -32.329594 110 93 77
-6.857143 -12.307693 -32.566441 109 92 76
-6.899628 -12.490706 -33.050701 108 91 75
-6.840149 -12.490706 -33.050701 108 91 75
-6.755556 -12.444445 -32.928291 107 90 74
-6.647059 -12.352942 -32.686172 107 90 74
-6.588235 -12.352942 -32.686172 105 88 72
-6.365592 -12.043011 -31.866089 106 89 73
-1.744301 -3.330030 -8.811337 106 89 73
-1.704790 -3.284457 -8.690751 106 89 73
-1.647283 -3.203051 -8.475347 107 90 74
-1.618147 -3.175803 -8.403250 107 90 74
-1.589503 -3.149016 -8.332370 107 90 74
-1.573034 -3.146067 -8.324568 106 89 73
-1.558052 -3.146067 -8.324568 103 86 70
-1.543071 -3.146067 -8.324568 101 84 68
-1.530957 -3.151970 -8.340186 97 80 64
-1.515947 -3.151970 -8.340186 93 76 60
-1.509434 -3.169811 -8.387395 90 73 57
-1.492931 -3.166824 -8.379490 86 69 53
-1.468165 -3.146067 -8.324568 82 65 49
-1.434381 -3.105361 -8.216856 79 62 46
-1.419593 -3.105361 -8.216856 72 55 37
-1.407407 -3.111111 -8.232073 71 54 36
-4.647059 -12.352942 -32.686172 89 72 56
-4.605166 -12.398524 -32.806786 87 70 54
-4.216607 -12.129964 -32.096169 77 60 44
-3.918367 -11.428572 -30.240267 75 58 42
-3.583596 -10.599369 -28.046179 73 56 40
-3.467492 -10.402476 -27.525198 73 54 39
-3.417957 -10.402476 -27.525198 71 52 37
-3.368421 -10.402476 -27.525198 70 51 36
-1.002985 -10.029851 -26.539221 73 57 42
-0.949555 -9.970326 -26.381718 70 54 39
-0.886297 -9.795918 -25.920229 67 51 36
-0.839650 -9.795918 -25.920229 63 47 32
-0.793003 -9.795918 -25.920229 60 44 29
-0.750733 -9.853373 -26.072254 54 41 25
-0.714286 -10.000000 -26.460234 54 41 25
-0.670659 -10.059880 -26.618679 54 41 25
-0.628399 -10.151057 -26.859936 57 44 28
-0.587156 -10.275229 -27.188498 62 49 33
-0.541538 -10.338462 -27.355812 68 55 39
-0.493827 -10.370370 -27.440243 74 61 45
-0.450000 -10.500000 -27.783245 78 65 49
-0.400000 -10.500000 -27.783245 79 66 50
-0.350000 -10.500000 -27.783245 82 69 53
-0.297214 -10.402476 -27.525198 86 73 57
-0.239521 -10.059880 -26.618679 89 76 60
-0.187135 -9.824561 -25.996019 92 79 63
-0.134454 -9.411765 -24.903749 94 81 65
-0.086253 -9.056603 -23.963985 96 83 67
-0.043127 -9.056603 -23.963985 98 85 69
0.195918 -6.857143 -18.144161 112 99 82
0.222222 -6.666667 -17.640156 114 101 84
0.250000 -6.562500 -17.364529 117 104 87
0.277457 -6.473989 -17.130325 118 105 88
0.301318 -6.327683 -16.743198 118 105 88
0.331450 -6.327683 -16.743198 118 105 88
0.657048 -3.729190 -9.867523 95 82 65
0.670342 -3.704520 -9.802248 93 80 63
0.676056 -3.640303 -9.632328 92 79 62
0.689655 -3.620690 -9.580430 89 76 59
0.694915 -3.559322 -9.418050 88 75 58
0.702194 -3.510972 -9.290113 86 73 56
0.717414 -3.503650 -9.270739 82 69 52
0.732570 -3.496358 -9.251445 78 65 48
0.746114 -3.481865 -9.213097 74 61 44
0.755647 -3.449692 -9.127966 71 58 41
0.793249 -3.544304 -9.378311 69 56 39
1.725346 -3.096774 -8.194137 93 74 59
1.732110 -3.082569 -8.156549 89 70 55
1.743590 -3.076923 -8.141610 85 66 51
1.742287 -3.049002 -8.067730 81 63 49
1.794254 -3.113994 -8.239702 76 58 44
1.401535 -2.148338 -5.684552 91 73 59
1.387806 -2.111879 -5.588082 91 73 59
1.390000 -2.100000 -5.556649 92 74 60
1.396509 -2.094763 -5.542792 93 75 61
1.402985 -2.089552 -5.529004 94 76 62
1.415576 -2.093458 -5.539339 94 76 62
1.419731 -1.961471 -5.190098 92 74 60
1.406088 -1.929925 -5.106627 92 74 60
1.403189 -1.913440 -5.063006 91 75 60
1.403509 -1.901528 -5.031487 93 77 62
1.405405 -1.891892 -5.005990 94 78 63
1.414414 -1.891892 -5.005990 95 79 64
1.423423 -1.891892 -5.005990 94 78 63
1.432432 -1.891892 -5.005990 94 78 63
2.144020 -2.103945 -5.567088 43 30 21
2.155388 -2.105263 -5.570576 43 30 21
2.164057 -2.103945 -5.567088 44 31 22
2.157862 -2.088253 -5.525568 44 31 22
2.163772 -2.084367 -5.515285 44 31 22
2.168317 -2.079208 -5.501633 44 31 22
2.176871 -2.077922 -5.498230 45 32 23
2.188119 -2.079208 -5.501633 46 33 24
2.202108 -2.083075 -5.511865 46 36 26
2.221669 -2.092155 -5.535890 48 38 28
2.223325 -2.084367 -5.515285 53 40 31
2.230483 -2.081784 -5.508450 55 42 33
2.234858 -2.076638 -5.494833 59 46 37
2.243360 -2.075355 -5.491438 63 50 41
2.250463 -2.072795 -5.484663 67 54 45
2.263125 -2.075355 -5.491438 71 58 49
2.277228 -2.079208 -5.501633 76 64 52
2.295652 -2.086957 -5.522136 80 68 56
2.309894 -2.090852 -5.532445 80 68 56
2.737271 -2.281059 -6.035736 58 42 29
2.740691 -2.274882 -6.019390 59 43 30
2.747802 -2.271805 -6.011250 61 45 32
2.753036 -2.267206 -5.999082 61 45 32
2.621639 -2.101313 -5.560124 62 46 31
2.612042 -2.085661 -5.518708 62 46 31
2.876972 -2.119874 -5.609236 97 80 64
2.885246 -2.118537 -5.605699 96 79 63
2.895334 -2.118537 -5.605699 96 79 63
2.916456 -2.126582 -5.626987 96 79 63
2.928436 -2.127929 -5.630550 95 78 62
2.953533 -2.138765 -5.659223 94 77 61
3.124011 -2.216359 -5.864537 95 78 62
3.083712 -2.180402 -5.769396 96 79 63
3.074146 -2.166344 -5.732198 96 79 63
3.074550 -2.159383 -5.713778 95 78 62
3.061224 -2.142857 -5.670050 95 78 62
3.055838 -2.131980 -5.641268 94 77 61
3.038994 -2.113208 -5.591597 93 76 60
3.035692 -2.103945 -5.567088 93 76 60
9.943320 -6.801620 -17.997244 89 72 56
9.777778 -6.666667 -17.640156 89 72 56
9.637427 -6.549707 -17.330679 88 71 55
9.411765 -6.375711 -16.870281 88 71 55
9.424242 -6.363636 -16.838331 87 70 54
9.348314 -6.292135 -16.649136 89 72 56
9.378277 -6.292135 -16.649136 90 73 57
9.587787 -6.412214 -16.966867 91 74 58
16.050955 -10.700637 -28.314137 92 75 59
16.257235 -10.803859 -28.587263 93 76 60
16.308681 -10.803859 -28.587263 92 75 59
16.203821 -10.700637 -28.314137 92 75 59
-6.852097 -7.452538 -19.626135 92 75 59
-4.802488 -5.250389 -13.826810 92 75 59
-4.668693 -5.130699 -13.511609 92 75 59
-4.507375 -4.979351 -13.113036 92 75 59
-4.431487 -4.921283 -12.960114 93 76 60
-4.401747 -4.914119 -12.941250 94 77 61
-4.372093 -4.906977 -12.922440 96 79 63
-4.348837 -4.906977 -12.922440 96 79 63
-4.325582 -4.906977 -12.922440 96 79 63
-4.314869 -4.921283 -12.960114 95 78 62
-4.310395 -4.942899 -13.017040 93 76 60
-4.280702 -4.935672 -12.998010 91 74 58
-4.257310 -4.935672 -12.998010 88 71 55
-4.221574 -4.921283 -12.960114 86 69 53
-1.641791 -2.099503 -5.529004 85 68 52
-1.623762 -2.089109 -5.501633 88 71 55
-1.600982 -2.072437 -5.457728 92 75 59
-1.583384 -2.062309 -5.431056 95 78 62
-1.568819 -2.056029 -5.414518 96 79 63
-1.564792 -2.063570 -5.434376 98 79 64
-1.558824 -2.068627 -5.447695 99 80 65
-1.549020 -2.068627 -5.447695 98 79 64
-1.542998 -2.073710 -5.461080 96 77 62
-1.536946 -2.078818 -5.474531 95 76 61
-1.528977 -2.081381 -5.481282 93 74 59
-1.520049 -2.082665 -5.484663 90 71 56
-1.509248 -2.081381 -5.481282 87 68 53
-1.499383 -2.081381 -5.481282 87 68 53
-1.490438 -2.082665 -5.484663 88 69 54
-1.484230 -2.087817 -5.498230 90 71 56
-1.476161 -2.090402 -5.505039 92 73 58
-1.468983 -2.094293 -5.515285 94 75 60
-1.459057 -2.094293 -5.515285 97 78 63
-1.449131 -2.094293 -5.515285 100 81 66
-1.437423 -2.091698 -5.508450 102 83 68
-1.463786 -2.144854 -5.648436 107 88 73
-7.937500 -13.187500 -34.729057 116 99 83
-7.875000 -13.187500 -34.729057 116 99 83
-7.490637 -12.644195 -33.298271 115 98 82
-6.912892 -11.763066 -30.977835 115 98 82
-6.762887 -11.601375 -30.552023 114 97 81
-6.865455 -12.276363 -32.329594 109 92 76
-6.857143 -12.366301 -32.566441 107 90 74
-6.798535 -12.366301 -32.566441 106 89 73
-6.814815 -12.503704 -32.928291 105 88 72
-6.422535 -11.887324 -31.305065 105 88 72
-6.647059 -12.411765 -32.686172 105 88 72
-6.588235 -12.411765 -32.686172 104 87 71
-1.744301 -3.345887 -8.811337 106 89 73
-1.704790 -3.300098 -8.690751 106 89 73
-1.650430 -3.224451 -8.491536 108 91 75
-1.625831 -3.206078 -8.443151 109 92 76
-1.606061 -3.196970 -8.419166 109 92 76
-1.587902 -3.190926 -8.403250 108 91 75
-1.568332 -3.181904 -8.379490 105 88 72
-1.551789 -3.178908 -8.371599 102 85 69
-1.538172 -3.181904 -8.379490 97 80 64
-1.524528 -3.184906 -8.387395 93 76 60
-1.509434 -3.184906 -8.387395 90 73 57
-1.494340 -3.184906 -8.387395 86 69 53
-1.477851 -3.181904 -8.379490 82 65 49
-1.453184 -3.161049 -8.324568 79 62 46
-1.426184 -3.134633 -8.255003 75 58 40
-1.411328 -3.134633 -8.255003 72 55 37
-1.397770 -3.137547 -8.262675 68 51 33
-4.216607 -12.187726 -32.096169 78 61 45
-1.076233 -7.569507 -19.934168 85 69 54
-1.040359 -7.569507 -19.934168 86 70 55
-1.004484 -7.569507 -19.934168 88 72 57
-1.002985 -10.077612 -26.539221 80 64 49
-0.922190 -9.729107 -25.621437 77 61 46
-0.863636 -9.590909 -25.257496 75 59 44
-0.813559 -9.536723 -25.114798 72 56 41
-0.779370 -9.673352 -25.474609 70 54 39
-0.746356 -9.842566 -25.920229 66 53 37
-0.703812 -9.900293 -26.072254 64 51 35
-0.666667 -10.047619 -26.460234 63 50 34
-0.622755 -10.107784 -26.618679 64 51 35
-0.576577 -10.138138 -26.698614 66 53 37
-0.530120 -10.168674 -26.779032 69 56 40
-0.484848 -10.230303 -26.941330 73 60 44
-0.444444 -10.419753 -27.440243 76 63 47
-0.398754 -10.517134 -27.696693 79 66 50
-0.348910 -10.517134 -27.696693 82 69 53
-0.297214 -10.452012 -27.525198 85 72 56
-0.239521 -10.107784 -26.618679 88 75 59
-0.188235 -9.929412 -26.148937 90 77 61
-0.135977 -9.563740 -25.185946 92 79 63
-0.086957 -9.173913 -24.159344 94 81 65
-0.043011 -9.075269 -23.899567 96 83 67
0.000000 -8.907652 -23.458149 98 85 69
0.151659 -8.000000 -21.067863 106 93 76
0.174292 -7.355120 -19.369583 108 95 78
0.202105 -7.107368 -18.717134 110 97 80
0.226263 -6.820202 -17.960886 112 99 82
0.253968 -6.698413 -17.640156 113 100 83
0.281250 -6.593750 -17.364529 114 101 84
0.308285 -6.504817 -17.130325 115 102 85
0.644295 -3.776286 -9.944786 102 89 72
0.657048 -3.746948 -9.867523 100 87 70
0.670342 -3.722161 -9.802248 97 84 67
0.680480 -3.681570 -9.695353 95 82 65
0.693391 -3.657638 -9.632328 89 76 59
0.709189 -3.649730 -9.611502 87 74 57
0.726487 -3.649730 -9.611502 84 71 54
0.740581 -3.634015 -9.570117 79 66 49
0.754555 -3.618435 -9.529087 74 61 44
0.764331 -3.583864 -9.438046 69 56 39
0.781316 -3.583864 -9.438046 65 52 35
0.835556 -3.751111 -9.878488 63 50 33
1.720588 -3.102941 -8.171543 103 84 69
1.728938 -3.091575 -8.141610 99 80 65
1.727768 -3.063521 -8.067730 95 76 61
1.737557 -3.055204 -8.045827 90 72 58
1.741007 -3.035971 -7.995179 88 70 56
1.749104 -3.025090 -7.966522 85 67 53
1.389553 -2.124607 -5.595116 89 71 57
1.390000 -2.110000 -5.556649 90 72 58
1.396509 -2.104738 -5.542792 91 73 59
1.406484 -2.104738 -5.542792 92 74 60
1.418076 -1.968513 -5.184046 94 76 62
1.406088 -1.939115 -5.106627 94 76 62
1.400796 -1.919272 -5.054371 93 77 62
1.396396 -1.900901 -5.005990 94 78 63
1.405405 -1.900901 -5.005990 95 79 64
1.414414 -1.900901 -5.005990 95 79 64
1.423423 -1.900901 -5.005990 95 79 64
1.432432 -1.900901 -5.005990 94 78 63
2.107607 -2.087817 -5.498230 41 28 19
2.117501 -2.087817 -5.498230 42 29 20
2.150000 -2.110000 -5.556649 42 29 20
2.160000 -2.110000 -5.556649 42 29 20
2.156522 -2.096895 -5.522136 43 30 21
2.158416 -2.089109 -5.501633 44 31 22
2.165637 -2.086527 -5.494833 45 32 23
2.175525 -2.086527 -5.494833 45 32 23
2.188119 -2.089109 -5.501633 47 34 25
2.200743 -2.091698 -5.508450 48 38 28
2.213399 -2.094293 -5.515285 49 39 29
2.223325 -2.094293 -5.515285 54 41 32
2.227723 -2.089109 -5.501633 57 44 35
2.232099 -2.083951 -5.488049 62 49 40
2.240592 -2.082665 -5.484663 67 54 45
2.249075 -2.081381 -5.481282 71 58 49
2.264524 -2.086527 -5.494833 75 62 53
2.285714 -2.096895 -5.522136 79 67 55
2.299938 -2.100809 -5.532445 82 70 58
2.739130 -2.293478 -6.039836 66 50 37
2.748133 -2.291921 -6.035736 64 48 35
2.751523 -2.285714 -6.019390 62 46 33
2.639697 -2.134008 -5.619873 62 46 31
2.621639 -2.111320 -5.560124 61 45 30
2.612042 -2.095593 -5.518708 60 44 29
2.885246 -2.128625 -5.605699 100 83 67
2.895334 -2.128625 -5.605699 99 82 66
2.916456 -2.136709 -5.626987 98 81 65
2.926582 -2.136709 -5.626987 97 80 64
2.940431 -2.139417 -5.634118 96 79 63
3.152336 -2.285714 -6.019390 96 79 63
3.176071 -2.295038 -6.043942 96 79 63
3.174001 -2.285714 -6.019390 97 80 64
3.163416 -2.270343 -5.978909 97 80 64
3.159304 -2.259706 -5.950896 96 79 63
3.091384 -2.203655 -5.803289 96 79 63
3.081712 -2.189364 -5.765654 96 79 63
3.074146 -2.176660 -5.732198 96 79 63
3.070603 -2.166881 -5.706443 96 79 63
3.061224 -2.153061 -5.670050 95 78 62
3.057778 -2.143492 -5.644850 94 77 61
3.058228 -2.136709 -5.626987 93 76 60
3.054820 -2.127284 -5.602167 93 76 60
9.883300 -6.792757 -17.888609 90 73 57
9.719921 -6.658777 -17.535776 89 72 56
9.637427 -6.580897 -17.330679 88 71 55
9.393939 -6.393939 -16.838331 88 71 55
9.318352 -6.322097 -16.649136 87 70 54
9.330841 -6.310280 -16.618015 87 70 54
9.256931 -6.240296 -16.433712 87 70 54
9.408239 -6.322097 -16.649136 88 71 55
16.050955 -10.751593 -28.314137 89 72 56
16.101912 -10.751593 -28.314137 89 72 56
16.152866 -10.751593 -28.314137 89 72 56
15.949843 -10.583072 -27.870340 88 71 55
-4.483776 -5.002950 -13.113036 91 74 58
-4.401747 -4.937409 -12.941250 93 76 60
-4.353111 -4.908828 -12.866337 94 77 61
-4.286533 -4.859599 -12.737305 94 77 61
-4.239316 -4.831909 -12.664727 92 75 59
-4.216524 -4.831909 -12.664727 91 74 58
-4.193732 -4.831909 -12.664727 89 72 56
-4.194842 -4.859599 -12.737305 86 69 53
-4.171920 -4.859599 -12.737305 83 66 50
-3.815547 -4.469038 -11.713621 80 63 47
-3.730570 -4.393783 -11.516372 78 61 45
-3.709845 -4.393783 -11.516372 76 59 43
-1.583384 -2.072083 -5.431056 104 87 71
-1.568819 -2.065773 -5.414518 105 88 72
-1.564792 -2.073350 -5.434376 103 86 70
-1.558824 -2.078431 -5.447695 102 85 69
-1.549020 -2.078431 -5.447695 100 83 67
-1.541914 -2.238944 -5.868408 104 87 71
-1.576087 -2.304348 -6.039836 105 88 72
-1.566281 -2.305914 -6.043942 108 91 75
-6.872852 -11.656358 -30.552023 115 98 82
-6.817869 -11.656358 -30.552023 114 97 81
-6.762887 -11.656358 -30.552023 113 96 80
-6.532872 -11.737024 -30.763456 106 89 73
-6.638298 -12.028369 -31.527088 104 87 71
-6.581560 -12.028369 -31.527088 102 85 69
-6.422535 -11.943662 -31.305065 102 85 69
-1.801433 -3.471853 -9.099937 105 88 72
-1.738784 -3.381855 -8.864046 105 88 72
-1.702463 -3.341872 -8.759250 106 89 73
-1.655706 -3.280464 -8.598296 106 89 73
-1.621415 -3.242830 -8.499655 106 89 73
-1.598478 -3.227402 -8.459219 105 88 72
-1.575758 -3.212121 -8.419166 103 86 70
-1.554717 -3.200000 -8.387395 100 83 67
-1.539623 -3.200000 -8.387395 96 79 63
-1.527410 -3.206049 -8.403250 92 75 59
-1.512287 -3.206049 -8.403250 89 72 56
-1.498581 -3.209082 -8.411201 85 68 52
-1.483444 -3.209082 -8.411201 82 65 49
-1.464151 -3.200000 -8.387395 79 62 46
-1.440901 -3.181989 -8.340186 76 59 41
-1.446242 -3.227402 -8.459219 72 55 37
-0.924188 -4.081829 -10.698723 88 72 57
-0.805755 -4.067146 -10.660238 80 64 51
-0.783751 -4.052569 -10.622029 79 63 50
-1.076233 -7.605381 -19.934168 80 64 49
-1.028825 -7.521064 -19.713167 82 66 51
-0.986784 -7.471365 -19.582905 83 67 52
-0.941176 -7.389978 -19.369583 85 69 54
-0.893855 -9.474860 -24.834187 82 66 51
-0.837466 -9.344353 -24.492117 79 63 48
-0.789041 -9.293151 -24.357914 77 61 46
-0.764045 -9.528090 -24.973703 76 60 45
-0.723164 -9.581921 -25.114798 75 59 44
-0.687679 -9.719197 -25.474609 75 59 44
-0.653061 -9.889213 -25.920229 74 58 43
-0.606414 -9.889213 -25.920229 73 57 42
-0.554913 -9.803468 -25.695488 73 57 42
-0.508671 -9.803468 -25.695488 73 57 42
-0.462428 -9.803468 -25.695488 76 60 45
-0.436364 -10.278788 -26.941330 78 62 47
-0.398754 -10.566978 -27.696693 83 67 52
-0.348910 -10.566978 -27.696693 85 69 54
-0.298137 -10.534162 -27.610680 87 71 56
-0.238806 -10.125373 -26.539221 90 74 59
-0.189349 -10.035503 -26.303665 92 76 61
-0.137931 -9.747127 -25.547812 93 77 62
-0.090652 -9.609065 -25.185946 95 79 64
-0.043478 -9.217391 -24.159344 96 80 65
0.000000 -8.926316 -23.396418 96 83 67
0.041237 -8.742268 -22.914017 98 85 69
0.080808 -8.565657 -22.451107 100 87 71
0.116505 -8.233009 -21.579220 102 89 73
0.147465 -7.815668 -20.485342 103 90 74
0.175824 -7.454945 -19.539865 104 91 75
0.204255 -7.217021 -18.916252 106 93 76
0.235789 -7.141053 -18.717134 108 95 78
0.269474 -7.141053 -18.717134 108 95 78
0.637749 -3.976553 -10.422789 107 94 77
0.637088 -3.858931 -10.114492 106 93 76
0.646465 -3.806958 -9.978271 104 91 74
0.662192 -3.794183 -9.944786 102 89 72
0.678571 -3.785714 -9.922587 98 85 68
0.692564 -3.764706 -9.867523 95 82 65
0.705623 -3.739802 -9.802248 91 78 61
0.723264 -3.739802 -9.802248 88 75 58
0.739274 -3.731573 -9.780681 82 69 52
0.753560 -3.715225 -9.737830 77 64 47
0.765217 -3.686956 -9.663737 72 59 42
0.782609 -3.686956 -9.663737 66 53 36
0.817778 -3.768889 -9.878488 60 47 30
1.720588 -3.117647 -8.171543 110 93 77
1.727356 -3.103385 -8.134162 108 90 76
1.726201 -3.075249 -8.060416 105 87 73
1.726619 -3.050360 -7.995179 102 84 70
1.733214 -3.036705 -7.959390 100 82 68
1.745975 -3.033989 -7.952271 97 79 65
1.758713 -3.031278 -7.945164 94 76 62
1.397863 -2.131992 -5.588082 90 73 57
1.393035 -2.109453 -5.529004 91 74 58
1.406897 -1.949425 -5.109562 97 79 65
1.400796 -1.928368 -5.054371 97 79 65
1.396396 -1.909910 -5.005990 98 80 66
1.405405 -1.909910 -5.005990 98 80 66
1.414414 -1.909910 -5.005990 98 80 66
1.423423 -1.909910 -5.005990 97 79 65
1.432432 -1.909910 -5.005990 97 79 65
2.154039 -2.123982 -5.567088 39 26 17
2.160000 -2.120000 -5.556649 39 26 17
2.153846 -2.104218 -5.515285 41 28 19
2.151758 -2.092535 -5.484663 42 29 20
2.158965 -2.089957 -5.477904 43 30 21
2.171499 -2.092535 -5.484663 42 32 22
2.188119 -2.099010 -5.501633 43 33 23
2.233251 -2.104218 -5.515285 54 41 32
2.232099 -2.093827 -5.488049 59 46 37
2.241975 -2.093827 -5.488049 62 49 40
2.249075 -2.091245 -5.481282 65 52 43
2.285714 -2.106832 -5.522136 72 59 50
3.242637 -2.378682 -6.234670 98 81 65
3.253857 -2.378682 -6.234670 97 80 64
3.191227 -2.324880 -6.093652 97 80 64
3.176071 -2.305914 -6.043942 98 81 65
3.174001 -2.296547 -6.019390 98 81 65
3.163416 -2.281103 -5.978909 98 81 65
3.159304 -2.270415 -5.950896 98 81 65
3.124011 -2.237467 -5.864537 97 80 64
3.101828 -2.214099 -5.803289 97 80 64
3.094095 -2.201168 -5.769396 96 79 63
3.088444 -2.189800 -5.739599 96 79 63
3.063178 -2.164646 -5.673668 95 78 62
3.057778 -2.153651 -5.644850 95 78 62
3.058228 -2.146835 -5.626987 94 77 61
3.039498 -2.126646 -5.574068 94 77 61
3.021118 -2.106832 -5.522136 93 76 60
9.851107 -6.824950 -17.888609 91 74 58
9.843687 -6.797595 -17.816912 90 73 57
